-10.511198 6.0259342 -1.9961615
-10.991815 5.5477691 -1.9399687
-8.4768324 5.1228871 -2.1332138
-8.7538366 4.6630049 -2.0777624
-11.590903 4.9947085 -1.8841677
-12.245491 4.540473 -1.8407193
-9.1648684 4.1889734 -2.0211663
-9.5621672 3.7624421 -1.9778805
-12.827608 7.4112339 -1.8964915
-13.615266 6.9446492 -1.8598765
-35.269539 11.664844 2.2260857
-1.4132152 0.41112918 0.29423639
-14.382382 6.2900429 -1.7764683
-15.874953 5.9507899 -1.7844
-10.709932 4.9221878 -1.9205899
-11.312659 4.5332522 -1.8758926
-16.541647 5.130712 -1.6803721
-14.683129 3.6846793 -1.298327
-11.774824 3.9084427 -1.8156255
-12.446621 3.4110277 -1.7751174
-1.1829475 0.65686017 0.15948473
-14.908388 7.5870295 -0.23385444
-14.49745 8.785821 -1.3086563
-14.408909 7.7195678 -1.0954419
-19.159746 8.3554773 -0.17056672
-19.145784 7.1581078 0.019309878
-14.461529 6.6653709 -0.94376838
-14.689275 5.8561997 -0.78467786
-43.85585 13.606871 0.12805113
-44.638817 11.176636 0.60499561
-19.217739 6.3914447 -0.89529502
-19.186377 5.2434654 -0.68113405
-28.360907 16.381132 2.6295366
-45.083519 22.829451 4.2468967
-22.550037 13.678746 0.70890403
-23.00544 12.250572 0.92829263
-1.2806622 0.5306778 0.32422042
-1.3960619 0.54964614 0.34714267
-27.165354 12.580517 1.2788535
-28.092876 11.176826 1.5164951
-4.4135556 2.5930364 -1.9308729
-4.7026181 2.4561894 -1.9590338
-10.060229 3.333122 -1.9265065
-10.455325 2.8469028 -1.8848155
-4.9658475 2.1722875 -1.9553369
-5.2277675 1.9699242 -1.9616389
-4.1570244 1.9180822 -1.906629
-4.3440833 1.752713 -1.9002886
-5.5207071 1.6610827 -1.9686077
-5.8074846 1.4251875 -1.9745831
-4.6252785 1.4964886 -1.9279358
-4.8373713 1.290236 -1.9233568
-6.6230059 3.882021 -2.0650754
-6.971272 3.605124 -2.0482554
-5.2915664 3.2640667 -1.9977635
-5.6596146 3.0956616 -2.0225723
-7.5601902 3.3180625 -2.0992699
-8.0096722 3.0163195 -2.0975873
-6.0007958 2.7874241 -2.0287526
-6.3166022 2.5394814 -2.0365877
-8.3423328 2.5534108 -2.0488131
-8.6596823 2.1686685 -2.0000529
-6.8645539 2.2497165 -2.0868537
-7.2824817 1.9674481 -2.1073279
-10.486732 6.0998073 -1.9989488
-10.993631 5.6355329 -1.9469868
-8.4395018 5.1729774 -2.1318643
-8.7363987 4.7243795 -2.0808327
-11.573746 5.0738072 -1.8867085
-12.233381 4.6235814 -1.8434256
-9.1631613 4.2580719 -2.0270665
-9.5437994 3.8246186 -1.9790974
-12.804677 7.5057454 -1.9004498
-13.590735 7.0400538 -1.8628405
-35.208786 11.890701 2.2268469
-1.410604 0.4200007 0.29423639
-14.416844 6.4134727 -1.7868006
-15.891089 6.0708928 -1.7911983
-10.696601 4.9977522 -1.9241688
-11.311352 4.6153545 -1.8809824
-16.541285 5.2448096 -1.6840721
-17.152594 4.4145637 -1.5555284
-11.764976 3.9874492 -1.8182179
-12.449695 3.4960625 -1.77909
-1.178797 0.66428 0.15948473
-14.783985 7.6411977 -0.23158073
-14.502997 8.9143848 -1.3150971
-14.417966 7.8412914 -1.100708
-19.165329 8.5017176 -0.17172541
-19.149042 7.2967181 0.018831789
-14.468097 6.7790365 -0.94767869
-14.622579 5.9364166 -0.78266585
-43.779018 13.885188 0.12803403
-44.563839 11.455898 0.60496092
-19.199884 6.5198026 -0.89660382
-19.187695 5.3735695 -0.6827454
-27.149723 15.908711 2.5343244
-44.976425 23.131401 4.2502484
-22.494282 13.839055 0.70959139
-22.956165 12.410063 0.92918074
-1.2773026 0.53871405 0.32422042
-1.3925809 0.55840713 0.34714267
-26.586874 12.515562 1.2590497
-28.046179 11.362854 1.5176229
-4.3924232 2.6178515 -1.9285922
-4.677228 2.4805198 -1.9545621
-10.052093 3.400702 -1.9291973
-10.442916 2.9141116 -1.885922
-4.9588904 2.2065065 -1.9582578
-5.2065492 1.999424 -1.9580758
-4.1448908 1.944164 -1.906629
-4.3329844 1.7799734 -1.9002886
-5.5119519 1.6962979 -1.9693027
-5.7764816 1.4562216 -1.9664943
-4.6140451 1.5249356 -1.9271417
-4.8398604 1.323469 -1.9279928
-6.600131 3.9245453 -2.0656319
-6.9621439 3.6559718 -2.0525844
-5.2565775 3.2881739 -1.9918498
-5.6516705 3.1375506 -2.0270662
-7.3808618 3.2942219 -2.0518258
-8.0086393 3.073462 -2.102679
-5.9865909 2.8267086 -2.0300105
-6.3058138 2.5812631 -2.0384316
-8.3409138 2.6104546 -2.0527306
-8.6590748 2.2263873 -2.003336
-6.8358135 2.2879026 -2.0821002
-7.2755194 2.0146813 -2.1090546
-10.468525 6.1776323 -2.00313
-10.965008 5.7081246 -1.9483236
-8.4200506 5.2341681 -2.135462
-8.723671 4.7885237 -2.0852194
-11.570467 5.1593547 -1.8917906
-12.233634 4.7116666 -1.8482363
-9.1415234 4.3180814 -2.0283308
-9.5413618 3.8933332 -1.9839642
-12.775965 7.5972133 -1.9035597
-13.586611 7.1464562 -1.8690382
-35.16547 12.12277 2.2286956
-1.4079373 0.42885521 0.29423639
-14.609281 6.6098084 -1.8193107
-15.882264 6.1820989 -1.7949491
-10.689848 5.0767331 -1.9291792
-11.278486 4.6848278 -1.8803036
-16.542032 5.3597164 -1.6879902
-17.136068 4.5252786 -1.556722
-11.769511 4.0716753 -1.823402
-12.457894 3.582895 -1.7839798
-1.1745999 0.67167324 0.15948473
-14.721511 7.7265239 -0.23115778
-14.499055 9.0380774 -1.3206434
-14.42606 7.9634275 -1.1059742
-19.160721 8.6442289 -0.17270298
-27.296829 10.586347 -0.061946109
-14.434215 6.8741078 -0.94840276
-14.566533 6.0205793 -0.78140843
-43.690914 14.159977 0.12803403
-44.454235 11.725995 0.60463136
-19.188717 6.6508088 -0.89834893
-19.176611 5.5005994 -0.68381965
-25.659468 15.2513 2.414422
-44.881466 23.440268 4.2548766
-22.435711 13.998134 0.71024054
-22.89703 12.564611 0.92979127
-1.2738925 0.54672867 0.32422042
-1.3890449 0.56714565 0.34714267
-25.81566 12.350502 1.2314965
-27.985319 11.543406 1.5181435
-4.369576 2.6415374 -1.9255517
-4.6631894 2.5107296 -1.9553076
-10.050918 3.4708896 -1.9334257
-10.439531 2.983953 -1.8888726
-4.9635487 2.2461524 -1.9662899
-5.2078309 2.0374789 -1.9637771
-4.1325936 1.970168 -1.906629
-4.3217158 1.8071624 -1.9002886
-5.4958253 1.7291831 -1.9672179
-5.792768 1.4989793 -1.9759314
-4.6078453 1.555088 -1.92873
-4.8261127 1.352386 -1.9256749
-6.5835509 3.9709253 -2.0684137
-6.9424386 3.7014427 -2.0536666
-5.2342234 3.320118 -1.9911927
-5.6318464 3.1729982 -2.0270662
-7.3319516 3.3276825 -2.0433912
-7.989171 3.1237195 -2.102679
-5.9960461 2.877516 -2.0400727
-6.2841926 2.6186552 -2.0365877
-8.322504 2.6622131 -2.0522411
-8.6449156 2.2807481 -2.003336
-6.8050594 2.325191 -2.0767527
-7.2664065 2.0613863 -2.1102057
-10.444694 6.2524204 -2.0062659
-10.937654 5.7814946 -1.9499944
-8.4067488 5.2994905 -2.1408587
-8.7036562 4.8489118 -2.087851
-11.552196 5.238503 -1.8943315
-12.224051 4.7963419 -1.8515435
-9.1265335 4.3813872 -2.0312808
-9.5257635 3.9569385 -1.9859922
-12.741528 7.6855426 -1.9058218
-13.546689 7.2344747 -1.8698467
-28.5494 10.037981 1.8510807
-1.405215 0.43769318 0.29423639
-14.61249 6.7222738 -1.8256109
-15.843106 6.2817688 -1.7949491
-10.66482 5.1472368 -1.9306109
-11.279717 4.7685823 -1.8860722
-16.5401 5.474216 -1.6916904
-17.139965 4.6416545 -1.5601034
-11.752994 4.1488504 -1.8250223
-12.456004 3.6671987 -1.7873414
-1.1703565 0.67904031 0.15948473
-14.711521 7.8394942 -0.23232099
-14.514315 9.1748762 -1.3283366
-14.429706 8.0840359 -1.1109211
-19.169607 8.7937098 -0.17397024
-27.21303 10.751052 -0.061780617
-14.426622 6.9821043 -0.95129931
-14.550511 6.1212368 -0.78291738
-33.232552 10.995182 0.14674383
-44.37775 12.00456 0.60461408
-19.197363 6.7892876 -0.90129375
-19.181942 5.6327519 -0.68569946
-24.612223 14.83778 2.3320723
-44.713917 23.71154 4.2531204
-22.374336 14.15596 0.71085155
-22.843845 12.722796 0.93062389
-1.2704322 0.55472213 0.32422042
-1.3854539 0.57586217 0.34714267
-24.977522 12.142118 1.2011449
-27.93067 11.726736 1.5190113
-4.3607526 2.6738148 -1.9293523
-4.6424232 2.5373337 -1.9530717
-10.041858 3.5385711 -1.9361165
-10.439455 3.0549636 -1.8925607
-4.9392109 2.2725773 -1.9619087
-5.1949267 2.0701611 -1.9637771
-4.1086984 1.9904751 -1.9008261
-4.310276 1.834281 -1.9002886
-5.4902005 1.765427 -1.9693027
-5.7795911 1.5343968 -1.9745831
-4.6014471 1.5852238 -1.9303184
-4.8228474 1.3841822 -1.9279928
-6.5568361 4.0112057 -2.0678575
-6.927527 3.7495456 -2.0563724
-5.2021675 3.3457413 -1.9865931
-5.5870757 3.1943192 -2.0174363
-7.3004026 3.3688009 -2.0402281
-7.9873772 3.1809573 -2.1077712
-5.9642234 2.9084232 -2.0350416
-6.2658601 2.6573524 -2.0359731
-8.3313913 2.7229631 -2.0590973
-8.6473188 2.3395424 -2.0075572
-6.7867136 2.366632 -2.0755641
-7.2606759 2.1091142 -2.1125083
-10.427057 6.3312578 -2.0107954
-10.918507 5.8593931 -1.9533366
-8.3863983 5.3606386 -2.1444561
-8.6832237 4.9092383 -2.090483
-11.524427 5.3134761 -1.8952844
-12.219399 4.883275 -1.8557529
-9.1146183 4.4463997 -2.0350735
-9.524188 4.0265675 -1.9912646
-12.721666 7.7830648 -1.9106281
-13.537585 7.3392224 -1.8755056
-28.589121 10.254339 1.8570625
-1.4024371 0.4465138 0.29423639
-14.593309 6.8249197 -1.8288872
-15.860454 6.4041581 -1.8022161
-10.648151 5.2219772 -1.9338319
-11.264031 4.845562 -1.8887866
-16.541145 5.5901794 -1.6958258
-17.144993 4.7587872 -1.5636841
-11.741537 4.2279949 -1.8276144
-12.425142 3.7431257 -1.786119
-1.1660668 0.68638057 0.15948473
-14.732374 7.9697189 -0.23443606
-14.598792 9.3574762 -1.3435441
-14.458421 8.2197399 -1.1182617
-19.155638 8.9334745 -0.17480306
-27.18763 10.938959 -0.062203541
-14.428966 7.0955729 -0.95506465
-14.526452 6.218801 -0.78392339
-33.231003 11.22687 0.14662051
-44.26675 12.273561 0.60430193
-19.199387 6.9260969 -0.90391147
-19.180626 5.7634702 -0.68731076
-23.749798 14.521141 2.2652464
-44.618484 24.021292 4.2580686
-22.313543 14.314649 0.7115007
-22.780869 12.875899 0.93117899
-1.2669218 0.56269366 0.32422042
-1.3818083 0.58455592 0.34714267
-23.911985 11.80931 1.1615371
-27.87849 11.911401 1.5200523
-4.3376026 2.6972229 -1.926312
-4.6231341 2.5646682 -1.9515809
-10.023116 3.6029334 -1.9368851
-10.429476 3.1232936 -1.8944049
-4.929882 2.3059576 -1.9640993
-5.1783466 2.1013718 -1.9623516
-4.0977397 2.017065 -1.9016553
-4.3020291 1.8627617 -1.9019101
-5.4790001 1.7998884 -1.9693027
-5.7480083 1.5648408 -1.9664943
-4.5931244 1.6147226 -1.9311128
-4.8229175 1.4170123 -1.9318562
-6.5315032 4.0523243 -2.0678575
-6.9021401 3.7920771 -2.0558312
-5.1857772 3.3814769 -1.9885644
-5.5734644 3.2331364 -2.0200043
-7.2947869 3.4220295 -2.0449727
-7.9762053 3.2346883 -2.1103168
-5.957716 2.951787 -2.039444
-6.2455387 2.6951752 -2.0347438
-8.3159561 2.775877 -2.059587
-8.638073 2.3953714 -2.0089641
-6.7537408 2.4027619 -2.0696223
-7.2307391 2.1498375 -2.1073279
-10.402142 6.4059753 -2.013931
-10.909212 5.9429154 -1.9586836
-8.3476534 5.4100337 -2.1431072
-8.6623755 4.9694991 -2.0931146
-11.522966 5.4009323 -1.9010017
-12.195807 4.9629235 -1.8569559
-9.1022472 4.511436 -2.0388665
-9.5077047 4.0901785 -1.9932926
-12.711764 7.8596339 -1.9151518
-13.532417 7.4190803 -1.8800863
-28.536728 10.387574 1.8568449
-1.4003173 0.45311761 0.29423639
-14.578903 6.9021301 -1.8314071
-15.828259 6.478076 -1.8019817
-10.646313 5.2835178 -1.9384847
-11.248306 4.9017224 -1.8901441
-16.550325 5.6803808 -1.6999614
-17.172192 4.853528 -1.568856
-11.7363 4.2887278 -1.8302068
-12.445183 3.8131402 -1.7922308
-1.1628195 0.69186777 0.15948473
-14.731519 8.0591478 -0.23554644
-14.506094 9.3946924 -1.3383557
-14.467964 8.3155212 -1.1227299
-19.169348 9.0501757 -0.17592548
-27.085758 11.046605 -0.061707065
-14.436413 7.1839952 -0.95839584
-14.524473 6.2990532 -0.78580952
-33.34227 11.43993 0.14632249
-44.208424 12.482023 0.60430193
-19.200275 7.0288939 -0.90587461
-19.189573 5.86484 -0.68901157
-22.763697 14.064833 2.1852622
-39.080677 21.281651 3.7637985
-22.301174 14.455582 0.71276087
-22.751202 13.000929 0.93217808
-1.264256 0.56865752 0.32422042
-1.3790382 0.591061 0.34714267
-22.814241 11.399944 1.119705
-27.834892 12.048187 1.5206597
-4.3232827 2.7166407 -1.9255517
-4.6045046 2.5828254 -1.9485999
-10.013395 3.6528342 -1.9384229
-10.435341 3.1786578 -1.8984621
-4.9139237 2.3267486 -1.9619087
-5.1614604 2.1229393 -1.959501
-4.0963111 2.0404563 -1.9058002
-4.28649 1.8801134 -1.8986671
-5.4686804 1.8250855 -1.9686077
-5.7714539 1.6003293 -1.9779537
-4.5751114 1.632592 -1.9263475
-4.8055658 1.4366083 -1.9272201
-6.5155821 4.0851092 -2.0689702
-6.8875656 3.8264191 -2.0569134
-5.1383238 3.3849597 -1.9754227
-5.5401506 3.2488973 -2.0129423
-7.2750988 3.4547 -2.0439181
-7.9608736 3.2722387 -2.1103168
-5.9691477 2.9926918 -2.0488775
-6.2362623 2.7260873 -2.0359731
-8.2936096 2.8118932 -2.0571384
-8.6229448 2.4350049 -2.0080261
-6.7441368 2.4352162 -2.0702167
-7.2003403 2.1778572 -2.100996
-10.390208 6.4664087 -2.0177639
-10.886274 5.9971013 -1.9596862
-8.3594999 5.4739628 -2.1534503
-8.6591482 5.0219588 -2.0983784
-11.51521 5.4636736 -1.9041779
-12.196066 5.0300922 -1.8608644
-9.0948486 4.561326 -2.042238
-9.5116901 4.1450491 -1.9985652
-12.675534 7.9477868 -1.9174137
-13.51327 7.5193324 -1.8843979
-28.470898 10.566673 1.8568449
-1.3974427 0.46190715 0.29423639
-14.562046 7.0065436 -1.8351874
-14.402109 6.0027862 -1.6249923
-10.633967 5.3609829 -1.9427793
-11.237126 4.9810452 -1.8938766
-16.548067 5.7961378 -1.7038794
-17.206375 4.9800453 -1.5756191
-11.74608 4.3762426 -1.8366872
-12.439853 3.8971317 -1.7952869
-14.696511 9.2289305 -0.43051159
-14.743568 8.1863918 -0.23744991
-14.528291 9.5393467 -1.3471222
-14.470592 8.4383144 -1.1278365
-19.178772 9.2025328 -0.17726518
-26.954842 11.19132 -0.061100259
-14.43012 7.2944207 -0.96158195
-14.521158 6.4062419 -0.78832436
-28.770788 10.070196 0.15448877
-44.073402 12.74347 0.60379899
-19.198744 7.1655102 -0.90838313
-19.198132 5.9995408 -0.69116002
-21.963757 13.761047 2.1230195
-36.609108 20.23679 3.5500989
-23.422342 15.393883 0.7404843
-22.691563 13.156638 0.93289971
-1.260658 0.57658988 0.32422042
-1.3752974 0.5997141 0.34714267
-22.678036 11.510436 1.1171219
-27.771446 12.228468 1.5212671
-4.3014627 2.7407446 -1.9232709
-4.5881853 2.6117058 -1.9485999
-10.006788 3.7218769 -1.9418824
-10.420796 3.2459033 -1.8995686
-4.9092507 2.3624704 -1.9662899
-5.1566558 2.1588967 -1.9630644
-4.0736938 2.061168 -1.9008261
-4.2846351 1.9114228 -1.9035316
-5.458878 1.8600234 -1.9693027
-5.7522168 1.6340277 -1.9745831
-4.5699282 1.6632173 -1.92873
-4.8070455 1.4699563 -1.9318562
-6.4897857 4.125968 -2.0689702
-6.8751497 3.8762 -2.0607014
-5.1200867 3.4192894 -1.9767367
-5.5131006 3.2797959 -2.0103741
-7.2671285 3.5070963 -2.0481355
-7.9544482 3.3281238 -2.1143904
-5.9400959 3.0249293 -2.045104
-6.2207522 2.7659841 -2.0365877
-8.2995749 2.8722627 -2.0635049
-8.6336441 2.4966221 -2.0145922
-6.7197542 2.4742112 -2.0672457
-7.1791873 2.2208166 -2.0986938
-10.356027 6.5357838 -2.0191576
-10.869056 6.0768876 -1.9636966
-8.3346653 5.5328712 -2.1561487
-8.6307926 5.078238 -2.0992558
-11.487761 5.5393634 -1.9054482
-12.180642 5.1134796 -1.8635705
-9.0781879 4.6246243 -2.045188
-9.4926281 4.2078881 -2.0001874
-12.648712 8.0421867 -1.9213719
-13.496847 7.6215792 -1.8892483
-28.915567 10.939406 1.8866452
-36.055973 11.491553 2.5620296
-14.537326 7.1075201 -1.8379595
-14.397044 6.1070666 -1.6292119
-10.615819 5.4357986 -1.9460003
-11.234384 5.0644531 -1.8993056
-16.552486 5.9147778 -1.7086678
-17.170929 5.0869346 -1.5752213
-11.712821 4.4478464 -1.8357152
-12.428305 3.9794104 -1.797426
-1.1540333 0.70642543 0.15948473
-14.733681 8.3023596 -0.23871896
-1.2470164 0.80148751 0.080768809
-14.461939 8.5553932 -1.1319855
-19.176258 9.3500919 -0.17838763
-26.880306 11.358912 -0.061063483
-14.456701 7.4224167 -0.96751988
-14.522537 6.5160818 -0.79121649
-28.708832 10.251447 0.15448534
-43.984783 13.017879 0.60372961
-19.216774 7.3102221 -0.91209149
-19.192425 6.130342 -0.69268185
-21.893682 13.909494 2.1244979
-35.606369 19.976318 3.4698224
-23.368397 15.569615 0.74147713
-22.636036 13.315148 0.93378776
-1.2570103 0.5844996 0.32422042
-1.371502 0.60834366 0.34714267
-22.649654 11.67564 1.1189157
-27.732374 12.419838 1.5230891
-4.2810602 2.7656946 -1.9217508
-4.5700731 2.6395628 -1.9478546
-10.005206 3.793081 -1.9464951
-10.424564 3.3190105 -1.9043632
-4.8926411 2.3924439 -1.9655596
-5.1533246 2.1956017 -1.9673405
-4.0638909 2.0884058 -1.9024843
-4.2658634 1.935322 -1.9002886
-5.4453149 1.8936621 -1.9686077
-5.7490773 1.6722103 -1.9772797
-4.5576701 1.6912507 -1.9279358
-4.7941875 1.4990487 -1.930311
-6.4717889 4.171895 -2.0717523
-6.8540087 3.9212236 -2.0617838
-5.1016212 3.4535239 -1.9780511
-5.5005131 3.3192317 -2.0135844
-7.2484078 3.5543983 -2.0491898
-7.9476333 3.3840563 -2.1184638
-5.9091921 3.0560417 -2.0407019
-6.2067251 2.8065712 -2.037817
-8.2978029 2.9302142 -2.0679123
-8.6177874 2.5508204 -2.0145922
-6.6951485 2.5129967 -2.0642748
-7.1449809 2.2595985 -2.0923624
-10.352858 6.6252208 -2.0271716
-10.84783 6.1547561 -1.9670385
-8.3094206 5.5916839 -2.1588469
-8.6154947 5.1423235 -2.1036422
-11.484615 5.6271386 -1.9111655
-12.182849 5.2046041 -1.8692832
-9.064559 4.6896992 -2.0489807
-9.4892368 4.2778544 -2.0054598
-12.629514 8.1419373 -1.9267437
-13.474511 7.7209654 -1.8932904
-28.958033 11.164062 1.8931708
-35.964073 11.711697 2.5607851
-14.522567 7.2137709 -1.8422439
-15.823788 6.827014 -1.8174536
-10.59715 5.5105953 -1.9492216
-11.205928 5.1365728 -1.8999841
-16.55607 6.0336976 -1.7134564
-17.182451 5.2079325 -1.5797963
-11.704874 4.5292263 -1.8392795
-12.423735 4.064137 -1.8007877
-19.293066 12.466187 -0.63759243
-14.743764 8.4303989 -0.24062246
-18.056147 12.19115 -1.7428741
-14.431854 8.6604128 -1.1342196
-19.167276 9.495307 -0.17940144
-26.823111 11.533882 -0.061210617
-14.4628 7.5408535 -0.97186482
-14.515838 6.6228833 -0.79360557
-27.589918 10.046778 0.15640703
-43.894466 13.291662 0.60366023
-19.189077 7.4380574 -0.91318226
-19.191534 6.263155 -0.69447213
-21.852774 14.077067 2.1286376
-33.660347 19.165115 3.3022459
-23.313169 15.745269 0.74247003
-22.58285 13.475515 0.93478686
-1.2533132 0.59238577 0.32422042
-1.3676528 0.61694878 0.34714267
-22.85902 11.966315 1.1303962
-27.68108 12.606234 1.5243905
-4.265141 2.7935596 -1.9225109
-4.5550041 2.6691546 -1.9485999
-9.9811773 3.8558691 -1.9464951
-10.409119 3.3862534 -1.9054699
-4.874186 2.4214644 -1.9640993
-5.1634798 2.2382302 -1.977318
-4.0522981 2.1147494 -1.9033133
-4.251955 1.9613296 -1.8994777
-5.4368386 1.9291078 -1.9699974
-5.7312293 1.706181 -1.9745831
-4.5538073 1.7224872 -1.9311128
-4.7829142 1.5285882 -1.9295382
-6.4518671 4.2166996 -2.0739777
-6.8425832 3.9718988 -2.0661128
-5.0798221 3.4855092 -1.9780511
-5.445538 3.3330984 -2.000102
-7.2362776 3.6050651 -2.0523529
-7.9404306 3.4400322 -2.1225371
-5.891551 3.093998 -2.0413306
-6.1941652 2.8478777 -2.0396609
-8.2919855 2.9869289 -2.0713406
-8.6071768 2.6065896 -2.0159991
-6.670321 2.5515685 -2.0613039
-7.1397662 2.3073587 -2.0952401
-10.330825 6.703042 -2.0313528
-10.810655 6.2237711 -1.9673725
-8.2693033 5.6404748 -2.1574979
-8.5980625 5.2054105 -2.1075902
-11.461394 5.7053695 -1.913389
-12.155353 5.2834005 -1.8701851
-9.0452862 4.7520413 -2.0515094
-9.4728661 4.3422608 -2.0078933
-12.594661 8.2319927 -1.9295712
-13.451459 7.820374 -1.8973323
-28.885456 11.345061 1.893062
-35.895458 11.939323 2.5611584
-14.492883 7.3129473 -1.844512
-14.308249 6.2827244 -1.6278054
-10.576221 5.5844517 -1.9520848
-11.210987 5.2242851 -1.9071097
-16.517834 6.1376052 -1.7134564
-17.189327 5.3281078 -1.5839738
-11.692698 4.60923 -1.8421956
-12.409209 4.1458545 -1.8026214
-19.241087 12.60472 -0.63877153
-14.783969 8.5769062 -0.24347773
-18.023539 12.334788 -1.7477047
-14.455564 8.798481 -1.1415602
-19.162577 9.643486 -0.18052389
-26.77211 11.71179 -0.061431244
-14.45741 7.6540446 -0.9753406
-14.473938 6.7139597 -0.79360557
-27.342567 10.151551 0.15674272
-43.7948 13.562476 0.60352147
-19.192087 7.5783458 -0.91612709
-19.195417 6.3980918 -0.696531
-22.079308 14.420542 2.1565802
-32.166359 18.584314 3.1753671
-23.251707 15.917457 0.74334836
-22.531963 13.637814 0.93589705
-1.2495663 0.60024905 0.32422042
-1.3637494 0.62552989 0.34714267
-23.009171 12.230011 1.1395806
-27.615837 12.786616 1.5250846
-4.242897 2.8172102 -1.9202304
-4.5253439 2.6901984 -1.9426376
-9.9713516 3.924293 -1.9495702
-10.395103 3.4540508 -1.906945
-4.8671665 2.4562762 -1.9677502
-5.1698737 2.2795825 -1.9858704
-4.0373268 2.139308 -1.9024843
-4.2478466 1.9918423 -1.9035316
-5.4246101 1.9632307 -1.9699974
-5.7366295 1.747025 -1.9806502
-4.5377669 1.7490581 -1.92873
-4.7661896 1.5563562 -1.9264474
-6.4252453 4.2571559 -2.0739777
-6.8258033 4.0196719 -2.0688186
-5.0361738 3.5021677 -1.9688519
-5.4196482 3.3642712 -1.998176
-7.2031717 3.6452012 -2.0491898
-7.9257493 3.4929552 -2.1245739
-5.863636 3.1264563 -2.0381863
-6.1778769 2.8875406 -2.0402756
-8.2821465 3.0423408 -2.0737891
-8.6240892 2.6708765 -2.0244412
-6.6559334 2.5941293 -2.061898
-7.1014562 2.3444505 -2.0877576
-10.309865 6.7819366 -2.0358822
-10.808843 6.3133769 -1.9747249
-8.2785034 5.7234688 -2.1700895
-8.5885029 5.2735658 -2.1137311
-11.448205 5.7889018 -1.9175181
-12.141825 5.3684268 -1.8734925
-9.0324755 4.8180261 -2.0557237
-9.4685001 4.4123921 -2.013166
-12.560825 8.3230219 -1.9326813
-13.425978 7.9187908 -1.9011048
-28.83214 11.533757 1.8941497
-35.851875 12.175508 2.5632744
-14.476641 7.4192924 -1.8487961
-14.442721 6.4499655 -1.6503099
-10.556514 5.6591926 -1.9553058
-11.176158 5.2937803 -1.9067705
-1.2658831 0.45376188 0.068529919
-17.185877 5.4455767 -1.5871564
-11.683636 4.6907344 -1.84576
-12.412868 4.2338891 -1.8075109
-19.236376 12.775203 -0.64208782
-14.757381 8.6858082 -0.24432379
-17.983297 12.473942 -1.7518196
-14.741304 9.0990963 -1.1736356
-19.174561 9.801096 -0.18200837
-26.718102 11.888694 -0.061633512
-14.465208 7.7750392 -0.97997499
-14.496514 6.8353081 -0.7981323
-27.311897 10.335914 0.15668106
-43.722073 13.841589 0.60364288
-1.3235148 0.50615078 0.1334371
-19.19079 6.5307541 -0.69823182
-22.13784 14.65823 2.1698864
-30.52104 17.891865 3.0336454
-23.185713 16.087202 0.74415022
-22.476517 13.797908 0.93689615
-1.2457702 0.60808814 0.32422042
-1.3597921 0.63408595 0.34714267
-22.960001 12.389549 1.1407287
-27.565697 12.974313 1.5265596
-4.2235818 2.8427715 -1.9194701
-4.5131335 2.7214293 -1.9448732
-9.9792576 4.0000892 -1.9564893
-10.395552 3.5268204 -1.911371
-4.8516374 2.4868081 -1.9677502
-5.1383624 2.3044512 -1.9787433
-4.0238061 2.1646321 -1.9024843
-4.2220087 2.0122726 -1.8970456
-5.4191937 1.9999036 -1.9727771
-5.7255392 1.7830336 -1.9806502
-4.5249829 1.7768543 -1.9279358
-4.7738461 1.5920169 -1.9341743
-6.4095082 4.3049765 -2.0778725
-6.8004122 4.062479 -2.0688186
-5.0233064 3.540309 -1.9727944
-5.3903675 3.3932436 -1.9949659
-7.1904044 3.6957116 -2.0523529
-7.9195509 3.5497558 -2.1291566
-5.8238831 3.152312 -2.0306394
-6.1527233 2.9230585 -2.037817
-8.2519836 3.0902054 -2.0708511
-8.6034269 2.7238457 -2.0235033
-6.6200075 2.6280754 -2.055362
-7.0756822 2.3853893 -2.0843043
-10.289955 6.8619237 -2.0407603
-10.784247 6.3901787 -1.9777328
-8.2375994 5.7720022 -2.1687405
-8.556859 5.3284502 -2.1141696
-11.432663 5.8715844 -1.9213295
-12.118686 5.4494524 -1.8752966
-9.0140429 4.8812299 -2.0586739
-9.4600821 4.4809694 -2.0176272
-12.546115 8.3986845 -1.9369221
-13.405551 7.9920902 -1.9037994
-28.784866 11.672503 1.8945847
-35.805431 12.348218 2.5640211
-14.457356 7.4956727 -1.8510642
-1.2799907 0.60486203 0.049491346
-10.555647 5.7229996 -1.9606743
-11.172437 5.3565683 -1.9108422
-14.562973 5.5910215 -1.4920957
-17.199823 5.5392556 -1.5913337
-11.676013 4.7517209 -1.8483521
-12.40399 4.2961941 -1.8093443
-19.243956 12.911439 -0.64510924
-14.871066 8.8470192 -0.2490826
-18.013969 12.621521 -1.7616597
-14.72366 9.1842508 -1.1760293
-19.192068 9.9244881 -0.18331186
-25.800821 11.627417 -0.05295445
-14.477438 7.8698697 -0.98403013
-14.505607 6.9232512 -0.80102444
-27.419682 10.524845 0.15639332
-43.635414 14.040741 0.60345215
-15.592076 6.3506918 -0.70867908
-19.197588 6.6341181 -0.70002222
-21.747112 14.546933 2.1412044
-28.960745 17.162544 2.8963926
-23.124378 16.206623 0.7444939
-22.443544 13.923664 0.93795079
-1.2428908 0.61395192 0.32422042
-1.356789 0.64048672 0.34714267
-22.925911 12.511035 1.1417332
-27.522297 13.112646 1.5274271
-4.2086153 2.8615949 -1.9187098
-4.5034385 2.7445827 -1.9463638
-9.9802799 4.0552459 -1.9607177
-10.389977 3.5795841 -1.913584
-4.8382154 2.5087779 -1.9670199
-5.1291518 2.3294046 -1.9794562
-4.0119672 2.1826906 -1.9016553
-4.2207351 2.036072 -1.9010994
-5.4026957 2.0227566 -1.9699974
-5.7206688 1.8111157 -1.9819982
-4.5165596 1.7981578 -1.9279358
-4.7697916 1.6156608 -1.9357197
-6.3859787 4.3329644 -2.0767598
-6.779541 4.0934892 -2.0682771
-5.001965 3.5606356 -1.9708232
-5.3711128 3.4165869 -1.993682
-7.1626558 3.7241812 -2.0491898
-7.9080257 3.5894182 -2.1306841
-5.8122873 3.1815577 -2.0318973
-6.1440353 2.9544742 -2.0396609
-8.2663012 3.1401601 -2.0786867
-8.6164303 2.7726207 -2.0300694
-6.6075497 2.6592417 -2.055362
-7.0534778 2.4150212 -2.0808506
-10.275448 6.9224792 -2.0445931
-10.760789 6.4449654 -1.9790694
-8.2373009 5.8299642 -2.1763854
-8.5531578 5.3821688 -2.1198721
-11.41887 5.9327054 -1.9238706
-12.110882 5.514658 -1.8783033
-9.0080643 4.9330864 -2.0628879
-9.4370937 4.5246563 -2.0172217
-12.504555 8.4851484 -1.9389012
-13.375442 8.0884304 -1.9070328
-28.718346 11.856183 1.8950198
-28.638083 10.083655 2.0955522
-14.434533 7.59934 -1.8545926
-15.752465 7.2409163 -1.8296437
-10.529811 5.7949224 -1.9628215
-11.159847 5.4369736 -1.9149141
-14.518306 5.6787734 -1.4910074
-17.208181 5.6614547 -1.5959088
-11.68054 4.8394113 -1.8545088
-12.393538 4.3799386 -1.8120949
-19.230162 13.078253 -0.64813071
-19.204721 11.58017 -0.3845495
-17.961901 12.754092 -1.7647014
-14.495332 9.1691923 -1.1599118
-19.193033 10.078422 -0.18461536
-24.339453 11.154885 -0.038924485
-14.478312 7.9887023 -0.98822999
-14.454632 7.0107808 -0.80052149
-27.326946 10.686694 0.15644129
-33.269722 10.942938 0.50966376
-15.398856 6.3848085 -0.69962645
-19.191345 6.7671843 -0.70172304
-21.63714 14.670953 2.1395779
-27.811291 16.719446 2.7991986
-23.082378 16.394493 0.74590683
-22.387793 14.084599 0.93900537
-1.2390089 0.62174886 0.32422042
-1.3527381 0.6489988 0.34714267
-22.869572 12.667445 1.1426661
-27.478952 13.304433 1.529336
-4.1920705 2.8890383 -1.9194701
-4.4829388 2.7708876 -1.9448732
-9.9600382 4.1201353 -1.9618709
-10.393266 3.6538594 -1.9187474
-4.8174276 2.5365012 -1.9648293
-5.1161156 2.3623607 -1.9801688
-3.9949977 2.2060771 -1.8999974
-4.1996284 2.0585725 -1.8970456
-5.3846331 2.0546322 -1.9679127
-5.685854 1.8395889 -1.9732351
-4.5034757 1.8258011 -1.9271417
-4.7473207 1.641441 -1.930311
-6.3554716 4.3708143 -2.0756471
-6.7652059 4.1430058 -2.0720654
-4.9825492 3.5942156 -1.9721371
-5.3319855 3.4390447 -1.9866198
-7.1493349 3.7745481 -2.0523529
-7.8976283 3.64467 -2.1342485
-5.7938399 3.2189419 -2.032526
-6.1270647 2.9938478 -2.0402756
-8.2446012 3.1913295 -2.0781968
-8.5932932 2.8248973 -2.0286624
-6.5801249 2.696321 -2.0517969
-7.0273027 2.4555373 -2.0773969
-10.239872 6.9924736 -2.046335
-10.753833 6.5328546 -1.9857534
-8.2005091 5.8816042 -2.1763854
-8.5241165 5.4389377 -2.1211879
-11.398817 6.0135822 -1.9270468
-12.097546 5.6005673 -1.8819113
-8.9905453 4.9972196 -2.0662594
-9.4384451 4.5983682 -2.0241165
-12.478694 8.5826721 -1.9437077
-13.349723 8.1878138 -1.911075
-28.669046 12.047246 1.8965423
-28.557245 10.257339 2.0944321
-14.405732 7.7002044 -1.8573647
-15.703055 7.3380728 -1.8291748
-10.517215 5.874455 -1.9678323
-11.134306 5.5113401 -1.9166107
-14.500795 5.7772722 -1.493184
-17.189255 5.7751455 -1.597699
-11.660806 4.9173312 -1.8564528
-12.388101 4.4657221 -1.8157618
-19.252846 13.271538 -0.65284717
-14.786027 9.0498476 -0.24992853
-17.931492 12.902825 -1.7702476
-14.486145 9.2912302 -1.1645396
-19.185757 10.22899 -0.18577398
-23.481771 10.941786 -0.030944154
-14.478261 8.1078596 -0.99243021
-14.476596 7.1340036 -0.80517399
-27.27969 10.866343 0.1564036
-33.188934 11.147949 0.50955969
-15.443012 6.5172858 -0.70464361
-19.197353 6.9051542 -0.70405048
-24.920151 17.131475 2.4433997
-26.564693 16.199381 2.6922691
-23.02108 16.569613 0.74689966
-22.325836 14.242166 0.93989348
-1.2350779 0.62952161 0.32422042
-1.3486335 0.65748554 0.34714267
-22.806942 12.820701 1.1433836
-26.713224 13.14224 1.4963661
-4.1798801 2.9195895 -1.9225109
-4.4654398 2.7990003 -1.9448732
-9.9357605 4.1834011 -1.9622552
-10.375657 3.7210684 -1.9198542
-4.7997575 2.5658345 -1.9640993
-5.1028657 2.3952456 -1.9808815
-3.9953015 2.2392249 -1.9074582
-4.1915345 2.087337 -1.8994777
-5.3751068 2.0897996 -1.9693027
-5.6920872 1.8811091 -1.9799759
-4.4834504 1.8505145 -1.9231706
-4.7438841 1.673656 -1.9334016
-6.3357449 4.4161801 -2.078429
-6.7390409 4.185432 -2.0720654
-4.9157801 3.5929375 -1.9530817
-5.322988 3.4807203 -1.9917558
-7.1271753 3.8203111 -2.05288
-7.8745718 3.6942205 -2.1342485
-5.7536979 3.2440152 -2.0249791
-6.1200876 3.0381653 -2.0445781
-8.2568207 3.2559693 -2.0870121
-8.5845985 2.8819022 -2.0310073
-6.5630536 2.7376122 -2.0517969
-7.0008969 2.495822 -2.0739436
-9.0217724 6.2405062 -1.7933754
-10.734424 6.6136956 -1.9900976
-8.1932878 5.9548593 -2.1849298
-8.5078259 5.5040021 -2.126013
-11.400798 6.1066089 -1.9343522
-12.092559 5.6907229 -1.8870227
-8.9657717 5.0574708 -2.0679452
-9.4111233 4.6584463 -2.0245221
-12.453722 8.6813383 -1.948797
-13.324965 8.2882338 -1.9153863
-28.611139 12.23501 1.8976299
-28.469732 10.428349 2.0929384
-14.379717 7.8029056 -1.8606408
-15.708705 7.4612293 -1.835973
-10.486936 5.9443178 -1.9692638
-11.125898 5.5944166 -1.9217005
-14.473415 5.8720231 -1.4942724
-17.156397 5.8843226 -1.5980968
-11.64961 4.9991035 -1.8600169
-12.376507 4.5495772 -1.8185124
-19.250931 13.44957 -0.65653187
-19.202206 11.909994 -0.38904393
-17.893486 13.046978 -1.7750781
-14.509456 9.4351978 -1.1723589
-19.186131 10.384631 -0.18711366
-23.455956 11.109615 -0.031385466
-14.480743 8.2293062 -0.99691975
-14.449349 7.2337298 -0.80643141
-27.220137 11.041301 0.15638648
-33.248795 11.400928 0.51075631
-1.3112228 0.53719205 0.1334371
-19.192993 7.0400391 -0.70593035
-24.862717 17.323107 2.447983
-24.813457 15.34808 2.5371413
-22.98271 16.762304 0.7484653
-22.271185 14.404929 0.94105911
-44.721699 24.194462 4.722528
-1.3444759 0.66594636 0.34714267
-22.762373 12.984584 1.1448904
-25.789719 12.890708 1.4555876
-4.15694 2.9425657 -1.9202304
-4.4509077 2.8289781 -1.9463638
-9.9291039 4.2542987 -1.9664836
-10.359462 3.788871 -1.9213293
-4.7851734 2.596838 -1.9648293
-5.0910964 2.4288549 -1.9823067
-3.9716914 2.2588313 -1.9024843
-4.170157 2.1095514 -1.8954241
-5.3688321 2.1263249 -1.9720821
-5.6873021 1.9192141 -1.9826725
-4.4784875 1.8815285 -1.9263475
-4.7332749 1.7034299 -1.9334016
-6.3172622 4.4625835 -2.0817673
-6.7191396 4.2317748 -2.0742297
-4.8749495 3.6101856 -1.9451967
-5.2820163 3.5016158 -1.9840518
-7.1081057 3.8678005 -2.0544615
-7.8791761 3.7568605 -2.1423953
-5.7332015 3.280103 -2.0249791
-6.1025801 3.0774097 -2.0451927
-8.2415915 3.3099682 -2.0884809
-8.5828915 2.9414108 -2.0352285
-6.5404577 2.7765374 -2.0500143
-6.963448 2.5319824 -2.0670362
-8.6603985 6.0702024 -1.7236894
-10.707727 6.6903858 -1.9931058
-8.1776371 6.0224571 -2.1912258
-8.5024939 5.576539 -2.1339085
-11.367402 6.180963 -1.9353051
-12.063705 5.7699895 -1.8882253
-8.9507589 5.1234603 -2.0721593
-9.402689 4.7279921 -2.0293889
-12.421542 8.7754459 -1.9527552
-13.289408 8.3823357 -1.9180812
-28.553839 12.423314 1.8988264
-28.442928 10.621649 2.0955522
-14.351243 7.9046183 -1.8636651
-15.665094 7.561501 -1.836442
-10.464713 6.0189519 -1.9724848
-11.099315 5.6686749 -1.9233971
-14.485812 5.9834189 -1.5001491
-1.3800608 0.50836039 0.06784372
-11.619777 5.0729928 -1.8603412
-12.362493 4.6327677 -1.8209572
-19.255692 13.633878 -0.66058505
-19.062637 11.99003 -0.38703465
-17.96163 13.270587 -1.7918959
-14.519866 9.5721569 -1.1790613
-19.178305 10.536817 -0.18830852
-23.410929 11.268887 -0.031642899
-14.487454 8.3540974 -1.0018439
-14.476622 7.3613505 -0.81158698
-27.035658 11.164676 0.15659885
-28.710979 10.05067 0.46974123
-1.3078216 0.54541981 0.1334371
-19.193319 7.177228 -0.70807874
-24.851084 17.548092 2.4568536
-23.881767 14.981098 2.4583008
-22.915506 16.934933 0.74938178
-23.421539 15.356813 0.98224503
-1.2270697 0.64499182 0.32422042
-1.340265 0.6743806 0.34714267
-22.704542 13.141383 1.145895
-24.964935 12.675956 1.4194076
-4.1428623 2.9718833 -1.9225109
-4.4189596 2.8479083 -1.9396561
-9.9273405 4.3276396 -1.9718652
-10.363105 3.8641214 -1.9268618
-4.7671361 2.6259456 -1.9640993
-5.0757351 2.4607944 -1.9823067
-3.9527066 2.2809846 -1.8999974
-4.1502962 2.1324048 -1.8921812
-5.3501573 2.1578872 -1.9699974
-5.6501703 1.9464319 -1.9732351
-4.4547906 1.9045157 -1.920788
-4.7138033 1.7300026 -1.9295382
-6.2875414 4.5010638 -2.0812111
-6.6972971 4.2770009 -2.0758533
-4.8491573 3.6384633 -1.9438826
-5.2472992 3.5263329 -1.9789158
-7.0853491 3.9133222 -2.0549886
-7.8606453 3.8088057 -2.1439228
-5.7141171 3.3170195 -2.0256081
-6.0831237 3.1156914 -2.0451927
-8.2188396 3.3609459 -2.0879915
-8.5826111 3.0016444 -2.0399184
-6.5228834 2.8175764 -2.0500143
-6.9402089 2.5730457 -2.064734
-8.4089193 5.9722857 -1.6773483
-10.692166 6.7743611 -1.9984528
-8.150548 6.0819044 -2.1943738
-8.4754267 5.6352301 -2.1361017
-11.342158 6.259923 -1.9378459
-12.037895 5.8508382 -1.8900294
-8.9420252 5.1934028 -2.0780597
-9.383276 4.7922945 -2.0318224
-1.0562164 0.7268973 0.035983667
-13.264888 8.4837751 -1.9226619
-28.487997 12.608148 1.8995876
-1.366542 0.54659575 0.29423639
-14.328978 8.010169 -1.8676972
-15.672596 7.6868105 -1.843709
-10.453845 6.1005125 -1.9782112
-11.09851 5.7563791 -1.9301834
-14.416798 6.0611682 -1.496449
-15.310971 5.4702139 -1.4103179
-11.614705 5.1579728 -1.8652016
-12.353467 4.71807 -1.8243189
-23.109293 16.587952 -0.83951467
-19.187664 12.237272 -0.39332682
-17.970304 13.452529 -1.8022728
-19.271116 12.868438 -1.6418403
-19.192007 10.702006 -0.18997408
-23.332476 11.412254 -0.031569347
-14.491443 8.4782896 -1.0066231
-14.463807 7.4695125 -0.81397605
-26.977875 11.339762 0.15657488
-28.641613 10.228857 0.46968925
-1.304369 0.55362642 0.1334371
-19.196411 7.3161221 -0.71040624
-24.766272 17.722485 2.4592192
-23.036486 14.654327 2.3871207
-22.851835 17.110979 0.75041282
-23.351246 15.521357 0.98313314
-1.2229929 0.65268904 0.32422042
-1.3360014 0.68278849 0.34714267
-22.645643 13.297976 1.1468995
-24.01597 12.38555 1.3769808
-4.1509418 3.0175712 -1.9361944
-4.3994198 2.8746097 -1.9389108
-9.9142914 4.3963294 -1.9749403
-10.349655 3.9333227 -1.9290745
-4.7456803 2.6530979 -1.9619087
-5.0584931 2.4918199 -1.9815941
-3.939862 2.3067038 -1.9008261
-4.136816 2.1584401 -1.8921812
-5.3503466 2.1972229 -1.9755566
-5.6573992 1.9886792 -1.9806502
-4.4544907 1.9376565 -1.9263475
-4.7132263 1.7634114 -1.9341743
-6.266892 4.5461473 -2.0839932
-6.6719108 4.3200383 -2.0763943
-4.8127108 3.6585133 -1.9379689
-5.2156205 3.5528741 -1.9750639
-7.0757403 3.9663026 -2.0597329
-7.860888 3.8700089 -2.1510515
-5.689899 3.3509171 -2.0243504
-6.0668116 3.1555953 -2.046422
-8.2243795 3.4237769 -2.0953374
-8.5745802 3.0594006 -2.0427325
-6.5033054 2.8577309 -2.0494201
-6.9149351 2.6132479 -2.0618563
-8.2914515 5.9672799 -1.6599269
-10.666003 6.8520327 -2.0017946
-8.1230335 6.1412516 -2.1975217
-8.4398527 5.6883726 -2.1361017
-11.338738 6.3514023 -1.9445162
-12.027514 5.9394398 -1.8945396
-8.9176283 5.2544689 -2.0801666
-9.3703871 4.8601317 -2.0358784
-8.8065615 6.3798156 -1.3338542
-13.229631 8.5787849 -1.9256262
-28.430058 12.796751 1.9008927
-35.376015 13.712726 2.5681281
-14.297333 8.1108418 -1.8704696
-15.62399 7.7851329 -1.843709
-10.417 6.1670823 -1.978569
-11.063868 5.8269153 -1.9305227
-14.343726 6.1367164 -1.4923134
-14.816052 5.3994398 -1.361384
-11.600036 5.2390089 -1.8684417
-12.33464 4.7998757 -1.8261523
-23.049837 16.765787 -0.84157819
-19.180962 12.403107 -0.39554763
-17.963123 13.624248 -1.8110392
-19.204754 12.99931 -1.6432767
-19.195692 10.862846 -0.19145863
-23.288979 11.572844 -0.031863555
-14.492727 8.6018391 -1.0112575
-14.469665 7.5879703 -0.81774831
-26.904255 11.50826 0.1565783
-27.668861 10.078802 0.46131277
-1.3008646 0.56181121 0.1334371
-19.176151 7.4466853 -0.71165943
-24.725431 17.929323 2.4657242
-22.182875 14.308915 2.3146641
-22.770937 17.274796 0.75106198
-23.293076 15.694546 0.9844653
-1.2188678 0.66036052 0.32422042
-1.3316848 0.69116938 0.34714267
-22.597677 13.461518 1.1484063
-22.731646 11.906084 1.3178953
-4.1333833 3.0446975 -1.9369545
-4.384376 2.9042306 -1.9404017
-9.9079189 4.4682713 -1.979553
-10.335745 4.0025077 -1.9312875
-4.7273011 2.6819372 -1.9611784
-5.0410609 2.5227256 -1.9808815
-3.9268506 2.3323519 -1.9016553
-4.1215525 2.1835432 -1.8913705
-5.355433 2.2388391 -1.9832008
-5.6483431 2.0254424 -1.9819982
-4.4305067 1.9603453 -1.920788
-4.7037807 1.7936392 -1.934947
-6.2412915 4.5877199 -2.0851059
-6.6462488 4.3629255 -2.0769355
-4.7448792 3.6539102 -1.9182562
-5.1963196 3.5877147 -1.9763478
-7.0506797 4.0106831 -2.0597329
-7.8433456 3.9227641 -2.1530881
-5.6703582 3.3875825 -2.0249791
-6.0485501 3.1945345 -2.0470366
-8.2134047 3.4799557 -2.0982759
-8.5698185 3.1184936 -2.0464845
-6.4974055 2.9040358 -2.0535793
-6.8804808 2.6498239 -2.0561004
-8.3220882 6.0693316 -1.6749092
-10.632667 6.9253521 -2.0037997
-8.0827427 6.1909804 -2.197072
-8.4184713 5.7511597 -2.1400497
-11.31404 6.431334 -1.9473746
-12.011187 6.0254917 -1.8981473
-8.8944902 5.3164401 -2.0826952
-9.3604851 4.9298124 -2.0407453
-8.6679344 6.3414855 -1.3146285
-13.218928 8.660532 -1.9304765
-28.389421 12.939708 1.9020891
-35.316582 13.881463 2.5685017
-14.281304 8.1909933 -1.8737457
-15.624404 7.8773947 -1.8486319
-10.418176 6.2343545 -1.9850113
-11.067633 5.8956017 -1.9366305
-14.460473 6.2677336 -1.5097263
-14.725076 5.4451485 -1.354422
-11.603909 5.3068056 -1.8736261
-12.352364 4.8738284 -1.8328757
-23.002771 16.897913 -0.84305209
-19.195999 12.541388 -0.39787412
-17.928741 13.731791 -1.8144386
-19.177868 13.113258 -1.6466279
-19.215401 10.993979 -0.19294311
-23.237761 11.684254 -0.031900331
-14.491339 8.6937027 -1.0145887
-14.467278 7.6737905 -0.8201375
-26.855228 11.637303 0.15656802
-27.300177 10.090795 0.4583472
-1.2982028 0.56793505 0.1334371
-19.191065 7.5566678 -0.71407634
-24.668007 18.065695 2.4682376
-21.735821 14.166563 2.2784357
-22.751143 17.429388 0.75255126
-23.255243 15.828853 0.98568642
-1.2157425 0.66609699 0.32422042
-1.3284131 0.69743711 0.34714267
-22.561373 13.584378 1.1495544
-22.516294 11.929044 1.3100867
-4.1115966 3.0585833 -1.9331534
-4.3706417 2.9248586 -1.9404017
-9.886754 4.5149102 -1.979553
-10.331422 4.0568829 -1.9342384
-4.7065578 2.6995137 -1.9575275
-5.0274467 2.5456164 -1.9801688
-3.9095955 2.347048 -1.8983394
-4.1241474 2.2097774 -1.8978565
-5.3568878 2.2692251 -1.9880652
-5.6156969 2.0437653 -1.9732351
-4.4329162 1.9865186 -1.9263475
-4.6987243 1.8170983 -1.9364924
-6.2272973 4.6228309 -2.087888
-6.6320472 4.3984318 -2.0790999
-4.7320671 3.6797268 -1.9202274
-5.1637745 3.6013899 -1.9699277
-7.0467257 4.052568 -2.0644774
-7.8437848 3.9692309 -2.158689
-5.6381178 3.404388 -2.0186901
-6.0334296 3.223002 -2.0470366
-8.1897955 3.5155406 -2.0963168
-8.5513773 3.1575058 -2.0455465
-6.4784379 2.93224 -2.0517969
-6.8625579 2.6801462 -2.0543733
-8.253828 6.0791826 -1.6661986
-10.639501 7.0013132 -2.0118203
-8.0904026 6.257709 -2.2078652
-8.4154091 5.8073287 -2.1466291
-11.298998 6.493464 -1.9502332
-11.995014 6.0882668 -1.9002523
-8.8877182 5.369462 -2.0873311
-9.3527269 4.9821157 -2.0443954
-8.6009264 6.3757138 -1.309822
-13.184082 8.7565432 -1.93371
-28.341972 13.133811 1.9041555
-32.692863 13.089952 2.3982399
-14.251831 8.2935743 -1.8770218
-15.604676 7.9907575 -1.852617
-10.395597 6.309937 -1.9885902
-11.035578 5.9678283 -1.9376483
-14.395359 6.3471975 -1.5066789
-14.638397 5.5179935 -1.3488522
-11.568549 5.3787751 -1.8733021
-12.328836 4.954278 -1.8340981
-22.934597 17.070786 -0.84482068
-19.200226 12.71686 -0.40051788
-17.901861 13.890645 -1.8212373
-19.16725 13.283382 -1.6536493
-19.213348 11.153731 -0.19435523
-23.203091 11.850004 -0.032304868
-14.489205 8.8168097 -1.0190784
-14.475061 7.7947345 -0.82416129
-26.809021 11.817938 0.15651664
-27.238108 10.262834 0.45836455
-14.573306 6.7792392 -0.66701496
-19.197012 7.6986008 -0.71667236
-24.589224 18.246513 2.4714904
-21.69132 14.332484 2.2827449
-22.685383 17.606369 0.75362051
-23.206373 16.009804 0.98740709
-1.2115332 0.67372257 0.32422042
-1.3240048 0.70577008 0.34714267
-22.502848 13.742563 1.1507024
-22.490196 12.096737 1.3125161
-4.0893545 3.0821152 -1.9316332
-4.3490958 2.9501944 -1.9389108
-9.8635254 4.5794344 -1.9807062
-10.338609 4.134779 -1.9408772
-4.6943173 2.7318652 -1.9597181
-5.0130181 2.5780015 -1.9808815
-3.9009681 2.3753884 -1.9016553
-4.1150141 2.2382407 -1.9002886
-5.3493996 2.3058393 -1.9908447
-5.609817 2.0815995 -1.9759314
-4.4070182 2.0081716 -1.9199936
-4.6768956 1.8425817 -1.9318562
-6.1935344 4.6583881 -2.0862188
-6.6106853 4.4442921 -2.0812645
-4.7147684 3.7140887 -1.922856
-5.1255317 3.6228955 -1.9635078
-7.0227857 4.0977416 -2.0650043
-7.8393641 4.028985 -2.1647992
-5.6117706 3.4367526 -2.0168035
-6.0030007 3.2554424 -2.0433488
-8.1977167 3.5802112 -2.1046424
-8.5641575 3.2234092 -2.0539887
-6.4685464 2.9769115 -2.0547678
-6.8437996 2.7225106 -2.0537977
-8.1886854 6.1108313 -1.6602752
-10.613368 7.0800261 -2.0154965
-8.0555162 6.312037 -2.2092142
-8.3947735 5.8712335 -2.1510158
-11.298866 6.5882831 -1.9578562
-11.988189 6.1797609 -1.9056644
-8.8687859 5.4344306 -2.0911238
-9.333313 5.0472746 -2.0472345
-8.5290937 6.4057698 -1.3041674
-13.158426 8.8590794 -1.9385604
-28.280563 13.321856 1.9054607
-32.543419 13.268024 2.3937593
-14.216509 8.3930664 -1.8795419
-15.575323 8.0996084 -1.8554301
-10.375828 6.3875494 -1.9928849
-11.03938 6.0597239 -1.945792
-14.46577 6.4873247 -1.5199562
-14.523506 5.5793047 -1.3402988
-11.564829 5.4657521 -1.8788105
-12.312112 5.0376015 -1.8365428
-22.890669 17.262739 -0.84776849
-19.20134 12.891759 -0.40310878
-17.879944 14.054626 -1.8287516
-19.166677 13.461893 -1.6617877
-19.208315 11.312866 -0.19573112
-23.151266 12.007502 -0.032543898
-14.492878 8.9444284 -1.0241473
-14.471377 7.9103475 -0.82743061
-26.396751 11.834476 0.15715036
-27.173088 10.433767 0.45836455
-1.2909634 0.58420342 0.1334371
-19.200081 7.840147 -0.71917886
-24.470909 18.398249 2.4711947
-21.604153 14.470703 2.2830641
-22.630861 17.793095 0.75499523
-23.141394 16.180464 0.98862827
-1.2072762 0.68132138 0.32422042
-1.3195443 0.71407479 0.34714267
-22.446627 13.902653 1.151994
-22.515522 12.293237 1.3175483
-4.0640507 3.1032274 -1.9285922
-4.3534918 2.9931204 -1.9500905
-9.8540602 4.6505775 -1.9849346
-10.321537 4.203341 -1.9427214
-4.6722631 2.7584431 -1.9575275
-4.9950614 2.6085904 -1.9801688
-3.8782506 2.3950255 -1.8975104
-4.089632 2.2579279 -1.8946133
-5.3330917 2.3386433 -1.99015
-5.6072116 2.1207554 -1.9799759
-4.4009585 2.0389435 -1.9231706
-4.665226 1.8719302 -1.9318562
-6.1763353 4.7065654 -2.0906699
-6.5921988 4.4922137 -2.0845113
-4.6751542 3.7306075 -1.9156278
-5.1134782 3.6627038 -1.9680017
-7.0068445 4.1477137 -2.0681677
-7.8053079 4.0737114 -2.1622534
-5.5820222 3.4669032 -2.013659
-5.9874406 3.2958293 -2.0451927
-8.1874495 3.6371934 -2.1080704
-8.5146589 3.2660952 -2.0464845
-6.4445338 3.0150478 -2.0529852
-6.8212261 2.7633181 -2.0520711
-1.1509908 0.84219664 -0.10488583
-10.581761 7.1553802 -2.0181701
-8.0202684 6.3661718 -2.2105634
-8.3720694 5.9339805 -2.1549635
-11.267434 6.6651959 -1.9597619
-11.968412 6.2650099 -1.9089715
-8.8493891 5.4993711 -2.0949168
-9.3186083 5.1151981 -2.0512903
-8.465086 6.4411922 -1.2999264
-13.125446 8.9571848 -1.9423331
-28.210707 13.506198 1.9063308
-32.446499 13.466893 2.3928881
-14.189 8.4975586 -1.883322
-15.580373 8.2269068 -1.8629317
-10.348824 6.4609833 -1.995748
-10.99419 6.125144 -1.9444346
-1.2332146 0.53622895 0.068529919
-14.393588 5.6336164 -1.3301539
-11.542699 5.5443158 -1.8810788
-12.311258 5.1277204 -1.841738
-22.823015 17.437815 -0.84968454
-19.204321 13.069426 -0.40580547
-17.850445 14.213912 -1.8355501
-19.158112 13.63631 -1.6692879
-19.205473 11.474438 -0.19717945
-23.082449 12.156452 -0.032617465
-14.493826 9.0713825 -1.0290712
-14.468557 8.0271893 -0.83082569
-24.88118 11.341727 0.15986331
-27.121901 10.610113 0.45850331
-1.2872673 0.59230334 0.1334371
-19.185511 7.9751587 -0.72087967
-24.405563 18.590361 2.4759257
-24.939243 16.927547 2.6143861
-22.570196 17.976097 0.75625539
-23.076811 16.352097 0.98990488
-1.2029715 0.68889356 0.32422042
-1.3150315 0.72235179 0.34714267
-22.394352 14.065775 1.1535008
-22.864513 12.670353 1.3387184
-4.0400996 3.1252837 -1.926312
-4.3345995 3.0204153 -1.9500905
-9.8387861 4.7192259 -1.9880097
-10.3131 4.2755966 -1.9464097
-4.6484685 2.7838883 -1.9546067
-4.9785724 2.639924 -1.9801688
-3.8646624 2.420321 -1.8983394
-4.0705638 2.2809248 -1.8921812
-5.3114552 2.36902 -1.9873703
-5.5867362 2.1532669 -1.9772797
-4.3814349 2.0633919 -1.9199936
-4.6550837 1.9018949 -1.9326291
-6.1527071 4.7499962 -2.0928955
-6.5670185 4.5357237 -2.0855935
-4.6106324 3.7264817 -1.8972296
-5.0688386 3.6792724 -1.9590136
-6.9789929 4.1906586 -2.0676403
-7.7966743 4.1316791 -2.167345
-5.5665383 3.5059807 -2.0161746
-5.9599538 3.3296971 -2.0427341
-8.1609039 3.6869583 -2.1070907
-8.521162 3.3300688 -2.0535195
-6.4237404 3.0546544 -2.0523911
-6.8001819 2.8046746 -2.05092
-1.1456764 0.84941196 -0.10488583
-10.557766 7.2361751 -2.0225143
-8.0210314 6.4495144 -2.2227056
-8.3441467 5.9932737 -2.1575952
-11.238862 6.7440157 -1.9623029
-11.94629 6.3493333 -1.9119785
-8.8328257 5.5663762 -2.0995524
-9.3017035 5.182189 -2.0549405
-8.3947105 6.4712138 -1.2945545
-13.093383 9.0563478 -1.9463753
-28.159395 13.699814 1.9083972
-32.381474 13.679027 2.3942571
-14.148883 8.5948057 -1.8853383
-15.523118 8.3218317 -1.8622286
-10.324627 6.5364399 -1.9993272
-10.991562 6.2143993 -1.9515603
-14.566944 6.7541933 -1.5421576
-14.43745 5.7554984 -1.3387073
-11.525354 5.6254244 -1.8843192
-12.287905 5.2088127 -1.843266
-22.763542 17.620066 -0.85204273
-19.205822 13.247633 -0.4085021
-17.807255 14.363361 -1.8409176
-21.669258 15.625379 -1.9254124
-19.215027 11.644726 -0.1989174
-23.053253 12.326657 -0.033113927
-14.513942 9.2115593 -1.0357333
-14.473542 8.1491919 -0.83484948
-23.628647 10.949243 0.16209328
-27.065851 10.784749 0.45860738
-14.40887 7.0360155 -0.66494274
-19.192095 8.1196108 -0.72365475
-24.343506 18.786036 2.4811003
-24.87841 17.115515 2.6188548
-22.498795 18.151495 0.75728643
-23.01099 16.52356 0.99118161
-31.352474 18.981806 3.460149
-1.3104668 0.73060018 0.34714267
-22.335857 14.225562 1.1547923
-22.800135 12.822566 1.3394992
-4.024734 3.1540523 -1.9285922
-4.2988014 3.0358965 -1.941892
-9.8142262 4.7835445 -1.9891629
-10.291471 4.3425918 -1.947516
-4.6356454 2.8159637 -1.9567972
-4.960238 2.6702754 -1.9794562
-3.8432548 2.4406176 -1.8950235
-4.0561523 2.3064561 -1.8921812
-5.3066916 2.4070401 -1.9915397
-5.5906534 2.1951332 -1.9840205
-4.3700352 2.0916822 -1.920788
-4.6413345 1.9304068 -1.9318562
-6.1182127 4.784996 -2.0912263
-6.5368094 4.5757971 -2.0850525
-4.5754762 3.745754 -1.8919727
-5.0486827 3.7132812 -1.9602977
-6.9623923 4.2404804 -2.0708034
-7.7961493 4.1942563 -2.174983
-5.5044994 3.5151823 -2.000452
-5.9223232 3.3577554 -2.0365877
-8.1569328 3.7471225 -2.112478
-8.505496 3.3856857 -2.0549266
-6.4027042 3.0941188 -2.0517969
-6.7700448 2.8422003 -2.0468907
-1.1403167 0.85659379 -0.10488583
-1.1058874 0.79650736 -0.084191889
-7.986382 6.5047231 -2.2245042
-8.314229 6.0513058 -2.1597886
-11.218168 6.827888 -1.9664321
-11.918353 6.4308181 -1.914083
-8.81248 5.6312766 -2.1033454
-9.2792025 5.2462902 -2.057374
-8.3336382 6.5079379 -1.2908789
-13.060593 9.1554585 -1.9504169
-28.112129 13.895969 1.9107898
-1.3421381 0.60404408 0.29423639
-14.131728 8.7064857 -1.8908825
-15.517667 8.4447641 -1.8685579
-10.311466 6.6193113 -2.0054114
-10.95401 6.2843137 -1.9518998
-14.445148 6.8081603 -1.5325805
-14.399158 5.8453498 -1.3385085
-11.503912 5.7047701 -1.8869113
-12.278548 5.2960458 -1.8472388
-22.694818 17.796078 -0.85403246
-19.205839 13.42637 -0.41119874
-17.770601 14.519135 -1.8471794
-21.575489 15.764743 -1.9258912
-19.204472 11.804038 -0.20025711
-22.978867 12.473162 -0.033150703
-14.53119 9.3512573 -1.0422505
-14.477566 8.2715683 -0.83887327
-23.512363 11.07528 0.16218233
-27.006824 10.958343 0.45869404
-14.314327 7.1014748 -0.66188884
-1.3833008 0.6217553 0.14206582
-24.286234 18.986574 2.4868662
-24.809652 17.298819 2.622685
-22.444643 18.341898 0.75877565
-22.958481 16.705402 0.99295777
-1.1942199 0.70395565 0.32422042
-1.3058506 0.73881936 0.34714267
