-1.1293883 -0.9277634 0.24522889
-0.96485519 -0.99537379 0.32422042
-1.024973 -1.095687 0.34714267
-1.029073 -1.0124304 0.2559399
-1.006709 -1.0323635 0.26624531
-3.6476722 -2.8494506 -1.7294234
-3.5953019 -3.1021638 -1.7354449
-5.7550521 -6.8816428 -1.6078426
-5.6524873 -7.5414152 -1.6199975
-3.4307809 -3.407681 -1.7260555
-3.3785765 -3.7159555 -1.7464088
-3.0646853 -2.9243119 -1.7507809
-3.0007808 -3.1514611 -1.7527342
-3.1941149 -4.042295 -1.7413713
-3.077162 -4.3268409 -1.7346072
-2.8436308 -3.449358 -1.7587688
-2.7448494 -3.701318 -1.7564565
-5.0187631 -3.930022 -1.6878349
-4.9396014 -4.2964964 -1.6824492
-4.2948747 -3.2094879 -1.7001038
-4.266211 -3.5399501 -1.7150517
-4.7457404 -4.7039299 -1.6691098
-4.7074251 -5.1780319 -1.6866782
-4.0845199 -3.8793175 -1.7029817
-4.0183678 -4.2288098 -1.7218865
-4.5146089 -5.6587524 -1.673679
-4.4242053 -6.1593928 -1.6759701
-3.8547626 -4.6422849 -1.7166781
-3.7327569 -4.9970236 -1.7147743
-7.2193236 -5.692071 -1.4790919
-7.1798878 -6.2908354 -1.4710953
-6.1222167 -4.6030159 -1.61515
-6.0261474 -5.0488911 -1.6154331
-7.1126752 -7.0530124 -1.4652219
-7.1052246 -7.799983 -1.4591687
-5.9157324 -5.6160069 -1.607322
-5.8553042 -6.1770453 -1.6124545
-8.5233841 -6.6734867 -1.3267859
-8.5999088 -7.4711041 -1.3306454
-0.92278492 -1.1282728 0.28232539
-0.90978467 -1.1569339 0.29423639
-8.5294008 -8.3665934 -1.3001621
-8.6138105 -9.3878918 -1.2871886
-6.8396778 -6.4654307 -1.488608
-6.8518476 -7.1386852 -1.481267
-8.6057739 -10.563396 -1.2759589
-8.6628857 -11.901554 -1.2565541
-6.6852031 -7.8833055 -1.4757223
-6.6477699 -8.7245007 -1.4756296
-17.528246 -13.676686 -0.61039925
-18.684025 -16.297367 -0.44715405
-11.547197 -8.6504974 -1.0819757
-11.948726 -9.9748411 -1.0328869
-20.006962 -19.633404 -0.29964733
-22.046793 -24.117113 -0.093187079
-12.137977 -11.434502 -0.99836802
-12.559838 -13.150702 -0.93406129
-24.663755 -30.249926 0.1398484
-0.86855268 -1.1518978 0.2184654
-12.98615 -15.282765 -0.88449728
-13.561387 -17.842682 -0.7941047
-1.096761 -0.88937688 0.30644599
-1.1358463 -0.96024001 0.32050854
-1.185627 -0.91756082 0.23386313
-1.1351951 -0.92064923 0.24522889
-0.97109008 -0.98929214 0.32422042
-1.031837 -1.0892255 0.34714267
-1.0354137 -1.0059447 0.2559399
-1.0131754 -1.0260181 0.26624531
-3.6699166 -2.8298402 -1.731704
-3.6344078 -3.0964718 -1.7458789
-5.791811 -6.8378787 -1.6059206
-5.6890979 -7.4916339 -1.6166782
-3.4521234 -3.3860583 -1.7260555
-3.394305 -3.6863668 -1.7421327
-3.0790002 -2.901278 -1.7482939
-3.0268278 -3.1391635 -1.756788
-3.2147324 -4.0163136 -1.7385916
-3.0867918 -4.2828937 -1.7238219
-2.8569546 -3.4216084 -1.7532091
-2.7592518 -3.6721504 -1.7502749
-5.0357332 -3.8925688 -1.6850528
-4.9650431 -4.2641158 -1.681908
-4.3103781 -3.1790984 -1.6981324
-4.2985849 -3.5215259 -1.7195456
-4.7752013 -4.6740193 -1.6691098
-4.7333422 -5.1412139 -1.6841323
-4.1102042 -3.8548708 -1.7036107
-4.0435443 -4.2021017 -1.721272
-4.5464015 -5.6257644 -1.6722099
-4.4730668 -6.1456571 -1.6801913
-3.8776765 -4.6106925 -1.7137072
-3.7686772 -4.9796004 -1.7170767
-7.253386 -5.6453943 -1.4787433
-7.2222462 -6.248189 -1.4717636
-6.1321893 -4.5505881 -1.6097535
-6.0532517 -5.0071831 -1.6141173
-7.1469474 -6.9985404 -1.4629984
-7.1340365 -7.7333384 -1.4546587
-5.9337335 -5.562736 -1.6022649
-5.8885908 -6.1344671 -1.6108322
-8.5572987 -6.6137648 -1.3253722
-8.6526871 -7.4220967 -1.3317235
-0.92985582 -1.1224524 0.28232539
-0.91703594 -1.1511946 0.29423639
-8.5746622 -8.3059502 -1.298902
-8.6753254 -9.3365011 -1.2876576
-6.8715138 -6.4142947 -1.4864606
-6.8773847 -7.0756526 -1.4765164
-8.655489 -10.489211 -1.2731293
-8.7186413 -11.821229 -1.2533715
-6.7320247 -7.8381577 -1.4750743
-6.6904168 -8.6668854 -1.4725738
-17.602741 -13.557758 -0.60988337
-18.776976 -16.171812 -0.44683683
-11.598114 -8.5754099 -1.0816178
-11.995803 -9.8868628 -1.0312911
-20.073875 -19.453087 -0.29823524
-22.101513 -23.873838 -0.091881558
-12.197881 -11.347157 -0.99720931
-12.617278 -13.045663 -0.93179786
-24.781961 -30.008047 0.14004022
-0.87577331 -1.1464179 0.2184654
-13.058437 -15.173652 -0.88253403
-13.62576 -17.695326 -0.79061353
-1.1023275 -0.8824681 0.30644599
-1.1418573 -0.95308429 0.32050854
-23.882236 -17.628674 0.77210277
-1.1409575 -0.91349828 0.24522889
-0.97728688 -0.98317099 0.32422042
-1.0386604 -1.0827208 0.34714267
-1.0417138 -0.99941909 0.2559399
-1.0196022 -1.0196316 0.26624531
-3.6891034 -2.8078372 -1.7324641
-3.6509645 -3.0711696 -1.7443885
-5.8320961 -6.7983799 -1.6051519
-5.7276974 -7.4448104 -1.6140964
-3.4760191 -3.3668771 -1.7275157
-3.4262717 -3.6745806 -1.7471216
-3.0998497 -2.8843381 -1.7499518
-3.0503006 -3.1240306 -1.7592201
-3.2446582 -4.0018382 -1.7413713
-3.1202593 -4.2725706 -1.7278664
-2.878397 -3.4035902 -1.7532091
-2.7867067 -3.6606376 -1.7533656
-5.0447717 -3.8492608 -1.6794888
-4.9888101 -4.2303329 -1.6808258
-4.3333335 -3.1541612 -1.6994467
-4.2956858 -3.474081 -1.7086315
-4.8086524 -4.6479297 -1.6706913
-4.7589836 -5.1042743 -1.6815863
-4.1329446 -3.8276849 -1.7029817
-4.0632572 -4.1697669 -1.7181988
-4.5804257 -5.5955911 -1.6717201
-4.5081463 -6.1127238 -1.6787841
-3.90657 -4.5862374 -1.7137072
-3.7917764 -4.9451485 -1.7130474
-7.2777586 -5.5913401 -1.4763044
-7.2553797 -6.197547 -1.4704269
-6.1622367 -4.513114 -1.6102031
-6.0845933 -4.9690495 -1.6141173
-7.182241 -6.9452815 -1.4610927
-7.1663308 -7.6709828 -1.4510506
-5.9944706 -5.5491681 -1.6098506
-5.9174938 -6.0874867 -1.6079931
-8.5781841 -6.5443048 -1.3216966
-8.6765099 -7.3483195 -1.3276813
-0.93689024 -1.1165879 0.28232539
-0.92425114 -1.1454099 0.29423639
-8.6252441 -8.2505417 -1.2986501
-8.7066545 -9.2528219 -1.2829691
-6.9116807 -6.3709927 -1.4864606
-6.912055 -7.0224433 -1.4741412
-8.7033339 -10.413298 -1.270082
-8.7713528 -11.737482 -1.2497909
-6.7746458 -7.7882748 -1.4734541
-6.7180357 -8.5903597 -1.4658505
-17.6621 -13.427564 -0.60870433
-18.859959 -16.037952 -0.44620234
-11.62921 -8.4859686 -1.0791131
-12.036067 -9.793643 -1.029057
-20.188477 -19.319666 -0.29805416
-22.171816 -23.649809 -0.090815052
-12.257168 -11.259515 -0.99605083
-12.672502 -12.938995 -0.92940879
-24.886545 -29.752087 0.14026287
-0.88295919 -1.1408924 0.2184654
-13.14432 -15.080779 -0.88177061
-13.696183 -17.557331 -0.78765953
-1.1078506 -0.87552452 0.30644599
-1.1478232 -0.9458909 0.32050854
-23.981211 -17.470037 0.77183551
-1.1466745 -0.90631133 0.24522889
-0.98344511 -0.97701102 0.32422042
-1.0454429 -1.0761733 0.34714267
-1.0479729 -0.992854 0.2559399
-1.0259886 -1.0132052 0.26624531
-3.6933057 -2.7746773 -1.7256224
-3.6630826 -3.0422015 -1.740662
-5.8734045 -6.7601228 -1.6047673
-5.7755651 -7.4102287 -1.6144652
-3.4957528 -3.3436899 -1.7267857
-3.4390852 -3.6420569 -1.74142
-3.1192594 -2.8660276 -1.7507809
-3.0647583 -3.0995717 -1.7559772
-3.2673433 -3.9784856 -1.7399813
-3.134805 -4.2361708 -1.7204514
-2.9033318 -3.3895984 -1.7555916
-2.8096523 -3.6430557 -1.7533656
-5.0642405 -3.8140395 -1.6778196
-5.0108776 -4.1951776 -1.6792024
-4.3515263 -3.1257765 -1.6987896
-4.3159547 -3.4458334 -1.7079896
-4.8419642 -4.6216044 -1.6722727
-4.7883167 -5.0714493 -1.680568
-4.1583209 -3.8029163 -1.7036107
-4.0893764 -4.1441541 -1.7181988
-4.6167369 -5.5681887 -1.6722099
-4.5429902 -6.0795937 -1.6773772
-3.9302945 -4.5558386 -1.7113305
-3.8309548 -4.9318495 -1.7170767
-7.2828674 -5.5229774 -1.4696844
-7.2746263 -6.1352572 -1.4660823
-6.1762233 -4.4640813 -1.6061559
-6.1096349 -4.9258013 -1.6123626
-7.2071276 -6.8823376 -1.4569638
-7.1994801 -7.6099663 -1.4477434
-6.020535 -5.5035067 -1.607322
-5.9528871 -6.0473857 -1.607182
-8.6112108 -6.4843431 -1.3202832
-8.7179565 -7.2898355 -1.3268729
-0.94388729 -1.1106793 0.28232539
-0.93142962 -1.1395802 0.29423639
-8.6595697 -8.1798754 -1.2956259
-8.7741899 -9.2080202 -1.28461
-6.9457388 -6.3221593 -1.485029
-6.9491019 -6.9718776 -1.4724448
-8.7531395 -10.340229 -1.2674701
-8.8425293 -11.678963 -1.2493931
-6.8077469 -7.7278247 -1.4695657
-6.7510743 -8.521594 -1.4606552
-17.738119 -13.31034 -0.60833579
-18.937405 -15.899828 -0.44540918
-11.675824 -8.4080896 -1.0783975
-12.112885 -9.7303371 -1.0306528
-20.255642 -19.141674 -0.29671448
-22.21266 -23.39682 -0.089380816
-12.315834 -11.171578 -0.99489212
-12.739512 -12.844927 -0.92815125
-24.978537 -29.483801 0.14051294
-0.89011002 -1.1353222 0.2184654
-13.226903 -14.984434 -0.88078892
-13.751801 -17.401892 -0.78372079
-1.1133296 -0.86854655 0.30644599
-1.1537436 -0.93866038 0.32050854
-24.01577 -17.265388 0.7700789
-1.1523464 -0.89908892 0.24522889
-0.98956424 -0.97081268 0.32422042
-1.052184 -1.0695834 0.34714267
-1.0541904 -0.98624998 0.2559399
-1.0323343 -1.0067389 0.26624531
-3.7196188 -2.757978 -1.7301835
-3.6892691 -3.0250492 -1.7443885
-5.9040565 -6.7098594 -1.6013077
-5.8074441 -7.3552403 -1.6100392
-3.5153322 -3.3203893 -1.7260555
-3.4696071 -3.6285212 -1.7456962
-3.1412716 -2.8500164 -1.7532678
-3.0854588 -3.0815544 -1.756788
-3.2910695 -3.9564426 -1.7392864
-3.1737022 -4.2330241 -1.7278664
-2.919728 -3.3657718 -1.7524149
-2.8291037 -3.6209505 -1.7510475
-5.0973825 -3.7889831 -1.6811579
-5.0341792 -4.1611462 -1.6781201
-4.3695331 -3.0972893 -1.6981324
-4.3404841 -3.4210069 -1.7092737
-4.8582244 -4.5792303 -1.6675283
-4.8214178 -5.0426669 -1.6810772
-4.1807175 -3.7754478 -1.7029817
-4.1193514 -4.1224356 -1.7200426
-4.6503787 -5.5375915 -1.6717201
-4.5647435 -6.0291729 -1.6708112
-3.9626298 -4.5353527 -1.7131131
-3.8524404 -4.8956003 -1.7124718
-7.3316455 -5.48769 -1.4728202
-7.3160543 -6.0919609 -1.4667506
-6.2009673 -4.4229341 -1.6052563
-6.1267586 -4.8763356 -1.6084149
-7.2502275 -6.8369188 -1.4569638
-7.236237 -7.5531316 -1.4453379
-6.0477176 -5.459044 -1.6052148
-5.9824953 -6.0015163 -1.6047486
-8.6374559 -6.4195147 -1.3177384
-8.7544365 -7.227324 -1.3252562
-0.95084727 -1.1047268 0.28232539
-0.93857145 -1.1337054 0.29423639
-8.7151546 -8.1293535 -1.2963818
-8.8084755 -9.1283617 -1.2806249
-6.9691868 -6.2639689 -1.4810922
-6.9829955 -6.9183412 -1.4700695
-8.8010778 -10.265439 -1.2646406
-8.8927755 -11.593129 -1.2456136
-6.8469443 -7.6746125 -1.4672976
-6.7933836 -8.465107 -1.4579049
-17.800501 -13.183186 -0.60737777
-19.010786 -15.75881 -0.44451028
-11.708914 -8.3207521 -1.0762506
-12.150385 -9.635417 -1.028259
-20.343321 -18.984041 -0.29591793
-22.263668 -23.157238 -0.088112071
-12.370907 -11.08069 -0.99344397
-12.795957 -12.740651 -0.92601359
-25.057722 -29.203403 0.1407904
-0.89722598 -1.129707 0.2184654
-13.318127 -14.898058 -0.88057089
-13.806009 -17.246447 -0.779782
-1.1187649 -0.86153424 0.30644599
-1.1596187 -0.93139279 0.32050854
-24.127039 -17.116465 0.77015531
-1.1579727 -0.89183068 0.24522889
-0.99564451 -0.96457595 0.32422042
-1.0588837 -1.0629513 0.34714267
-1.0603664 -0.97960687 0.2559399
-1.0386395 -1.0002327 0.26624531
-3.7353759 -2.7334685 -1.7294234
-3.6924052 -2.9888775 -1.7361901
-5.934309 -6.6594777 -1.5978483
-5.84865 -7.3124518 -1.6085639
-3.5361254 -3.2982361 -1.7260555
-3.4858725 -3.5999031 -1.7421327
-3.1563907 -2.8278108 -1.7516099
-3.1060536 -3.0633986 -1.7575986
-3.3158641 -3.9356863 -1.7392864
-3.1957107 -4.2069798 -1.7251701
-2.9383795 -3.3446167 -1.7508266
-2.8472524 -3.5972917 -1.7479568
-5.124197 -3.7591407 -1.6822708
-5.0617118 -4.1306567 -1.6786612
-4.3858023 -3.0676236 -1.6968184
-4.3574247 -3.3901567 -1.7073476
-4.8854833 -4.5473061 -1.6670011
-4.8583674 -5.0178523 -1.6831141
-4.1986661 -3.7440772 -1.7004662
-4.1357379 -4.0870652 -1.7157401
-4.6825581 -5.5053182 -1.6707406
-4.6119599 -6.0127463 -1.6745632
-3.9859617 -4.5046668 -1.7107364
-3.8914378 -4.8818169 -1.716501
-7.3453455 -5.4263616 -1.4682906
-7.3465877 -6.0395904 -1.4650797
-6.2142587 -4.3738394 -1.6012089
-6.1511555 -4.832901 -1.6066604
-7.2771072 -6.7764688 -1.4534698
-7.271193 -7.4947143 -1.442632
-6.0745802 -5.4144559 -1.6031077
-6.0089898 -5.9527488 -1.601504
-8.6484394 -6.364706 -1.3143456
-8.7746134 -7.1746712 -1.322831
-0.95604235 -1.100234 0.28232539
-0.94390309 -1.1292702 0.29423639
-8.7183218 -8.0559587 -1.2903336
-8.8223476 -9.0568171 -1.275702
-6.9927325 -6.225842 -1.4796605
-7.012712 -6.8825908 -1.4693907
-8.8297911 -10.201341 -1.2613755
-8.9290667 -11.527464 -1.2426299
-6.8737607 -7.6320224 -1.4650294
-6.8307157 -8.429925 -1.4572937
-17.835003 -13.079101 -0.606125
-19.040062 -15.632216 -0.44297689
-11.736574 -8.2574835 -1.0749981
-12.176863 -9.5632486 -1.0263442
-20.38405 -18.84322 -0.29472303
-22.276514 -22.952971 -0.086843297
-12.394591 -10.997165 -0.99069214
-12.828886 -12.653543 -0.92362452
-25.098072 -28.973204 0.14104387
-0.90253925 -1.1254667 0.2184654
-13.37076 -14.815886 -0.87915289
-13.829432 -17.109657 -0.77566421
-1.1228122 -0.85625285 0.30644599
-1.1639946 -0.92591804 0.32050854
-24.251638 -17.033579 0.77118635
-1.1621623 -0.88636434 0.24522889
-1.0001788 -0.95987362 0.32422042
-1.0638806 -1.05795 0.34714267
-1.0649706 -0.97459948 0.2559399
-1.0433412 -0.99532735 0.26624531
-3.7406938 -2.7104518 -1.7256224
-3.7150981 -2.9784584 -1.740662
-5.9590387 -6.6241646 -1.5959263
-5.8559651 -7.251092 -1.6004498
-3.5488794 -3.2790246 -1.7245952
-3.4988992 -3.5794086 -1.7399948
-3.1683123 -2.811707 -1.7507809
-3.1126537 -3.0410159 -1.7527342
-3.3368165 -3.9228625 -1.7406764
-3.2109437 -4.1858754 -1.7224736
-2.9626884 -3.3402963 -1.756386
-2.8698893 -3.591073 -1.7518203
-5.1293826 -3.7259722 -1.6778196
-5.0676856 -4.0958133 -1.6737911
-4.3986502 -3.0458553 -1.6961613
-4.3763404 -3.371913 -1.7086315
-4.9182439 -4.5346522 -1.6712184
-4.8779178 -4.9907379 -1.6815863
-4.2176905 -3.7255013 -1.701095
-4.160367 -4.0728817 -1.7181988
-4.6970305 -5.4699931 -1.666333
-4.6437969 -5.9955707 -1.6759701
-4.0058651 -4.4844151 -1.7101421
-3.9048405 -4.851449 -1.7118963
-7.3533115 -5.3789482 -1.4644578
-7.3459778 -5.9811716 -1.4587302
-6.2267861 -4.3389654 -1.5989604
-6.1646442 -4.7966418 -1.6040285
-7.3002291 -6.7340932 -1.4515641
-7.2953873 -7.4490385 -1.4402264
-6.0721011 -5.3612747 -1.5951004
-6.030005 -5.9174881 -1.599476
-8.6786308 -6.3032832 -1.3126494
-8.799511 -7.1031675 -1.319328
-0.96293646 -1.0942051 0.28232539
-0.95097995 -1.1233171 0.29423639
-8.7672977 -7.9996848 -1.2900815
-8.858201 -8.9799519 -1.2721857
-7.0213428 -6.1727161 -1.4771553
-7.0431123 -6.8260131 -1.466337
-8.8845177 -10.135213 -1.2598519
-8.9669991 -11.427236 -1.2370602
-6.9042411 -7.5697694 -1.4608171
-6.858541 -8.3562212 -1.4511817
-17.88604 -12.944554 -0.60472482
-19.109974 -15.489584 -0.44202513
-11.770203 -8.171114 -1.0730302
-12.206812 -9.4632912 -1.0233121
-20.457701 -18.67437 -0.29363686
-22.323647 -22.714048 -0.085574523
-12.439405 -10.898075 -0.98837495
-12.888148 -12.55316 -0.92186403
-25.197783 -28.721777 0.14125624
-0.90959311 -1.1197736 0.2184654
-13.447398 -14.713912 -0.8778441
-13.892428 -16.968264 -0.77253115
-1.1281699 -0.84918106 0.30644599
-1.1697894 -0.91858619 0.32050854
-24.396008 -16.907028 0.77206463
-1.1677086 -0.87904471 0.24522889
-1.0061901 -0.95357031 0.32422042
-1.0705069 -1.0512444 0.34714267
-1.0710731 -0.96788871 0.2559399
-1.0495744 -0.98875219 0.26624531
-3.766715 -2.6932995 -1.7301835
-3.7351882 -2.9562163 -1.7414074
-5.9912596 -6.5764613 -1.5932355
-5.9026499 -7.2156792 -1.6008186
-3.5694122 -3.2566614 -1.7245952
-3.5213199 -3.557353 -1.7399948
-3.1831632 -2.7893615 -1.749123
-3.1343157 -3.0239527 -1.7543557
-3.3589368 -3.8989897 -1.7392864
-3.2406251 -4.1700954 -1.7244959
-2.972507 -3.3093891 -1.749238
-2.8912435 -3.5715294 -1.7510475
-5.1339006 -3.680316 -1.6711428
-5.1038222 -4.0723391 -1.677579
-4.4114413 -3.0139251 -1.6935328
-4.3914318 -3.3397336 -1.7060635
-4.9323235 -4.4907279 -1.6659468
-4.9146004 -4.9655094 -1.6836231
-4.241015 -3.6989272 -1.701095
-4.1763387 -4.0373578 -1.7138962
-4.7338624 -5.4432893 -1.6673125
-4.6754017 -5.9586053 -1.6736251
-4.0352502 -4.4605675 -1.7107364
-3.9340417 -4.8253284 -1.7113206
-7.3901639 -5.3349366 -1.4651548
-7.3941488 -5.9435744 -1.4610696
-6.2507071 -4.2975588 -1.5980611
-6.1946611 -4.7578139 -1.6040285
-7.329227 -6.676158 -1.4487054
-7.333715 -7.3946095 -1.4384226
-6.1145339 -5.3306971 -1.5976291
-6.0614572 -5.8740134 -1.5978537
-8.7083931 -6.2417316 -1.310953
-8.8362341 -7.0415449 -1.3179806
-0.96979254 -1.0881333 0.28232539
-0.95801926 -1.1173196 0.29423639
-8.7908049 -7.9205942 -1.2855453
-8.9242563 -8.9339724 -1.2738266
-7.0480733 -6.1181922 -1.4742922
-7.0801811 -6.7761583 -1.4649796
-8.9361219 -10.065831 -1.2578931
-9.0200891 -11.347267 -1.2340764
-6.9489822 -7.5233464 -1.4601691
-6.9058719 -8.3068724 -1.4499593
-17.934465 -12.808722 -0.60325092
-19.157009 -15.32918 -0.44033313
-11.809794 -8.089138 -1.0717778
-12.245478 -9.3706217 -1.0212376
-20.518145 -18.494637 -0.29226094
-22.41518 -22.522263 -0.084912553
-12.495549 -10.809278 -0.98721623
-12.961023 -12.46639 -0.92136121
-25.275389 -28.447832 0.14152002
-0.9166109 -1.1140363 0.2184654
-13.504267 -14.591069 -0.87500834
-13.950375 -16.82214 -0.76912951
-1.1334833 -0.84207571 0.30644599
-1.1755379 -0.91121793 0.32050854
-1.2234645 -0.86646652 0.23386313
-1.1732088 -0.87169039 0.24522889
-1.0121619 -0.94722927 0.32422042
-1.0770911 -1.0444975 0.34714267
-1.0771335 -0.9611398 0.2559399
-1.0557663 -0.98213792 0.26624531
-3.7744586 -2.6632314 -1.7256224
-3.7478642 -2.9280868 -1.738426
-6.017777 -6.522862 -1.5890071
-5.9266224 -7.152658 -1.5945485
-3.5898042 -3.23417 -1.7245952
-3.5528152 -3.5444446 -1.7449836
-3.1978598 -2.7669408 -1.7474649
-3.142725 -2.9940474 -1.7478697
-3.3821287 -3.8764009 -1.7385916
-3.2656059 -4.1481667 -1.7238219
-2.9969716 -3.2946992 -1.7516208
-2.9101427 -3.5489936 -1.7487295
-5.1726522 -3.6590152 -1.6767068
-5.1187549 -4.0318084 -1.6737911
-4.4302917 -2.9861476 -1.6935328
-4.4093108 -3.3097873 -1.7047795
-4.9705205 -4.4686375 -1.6696368
-4.9388828 -4.9276757 -1.6810772
-4.2699504 -3.6771359 -1.7036107
-4.2112193 -4.0202799 -1.7181988
-4.7666836 -5.4119873 -1.6668228
-4.71034 -5.9260597 -1.6726871
-4.0567164 -4.4281125 -1.7077653
-3.9667103 -4.8034787 -1.7124718
-7.405859 -5.275878 -1.4613219
-7.4159346 -5.8846979 -1.4577276
-6.2614207 -4.2473145 -1.5935639
-6.1934118 -4.695117 -1.5952556
-7.3695593 -6.6286578 -1.4483879
-7.3632607 -7.3316002 -1.4348146
-6.1404791 -5.2858195 -1.5955222
-6.0996556 -5.8371692 -1.5982592
-8.7409601 -6.1823354 -1.309822
-8.8771906 -6.9834304 -1.3174417
-0.97661012 -1.0820186 0.28232539
-0.96502042 -1.1112785 0.29423639
-8.8448515 -7.8691511 -1.2863013
-8.9477901 -8.845541 -1.2684349
-7.0743933 -6.0635777 -1.471429
-7.1097565 -6.7193217 -1.4619259
-8.9898634 -9.999157 -1.2563695
-9.0662985 -11.259324 -1.230098
-6.9852996 -7.4680338 -1.4575768
-6.9465017 -8.2496843 -1.447209
-17.939375 -12.642914 -0.59986103
-19.243538 -15.201068 -0.44001585
-11.83725 -7.9992056 -1.0692731
-12.286633 -9.2802505 -1.0194823
-20.590586 -18.326843 -0.29121095
-22.526455 -22.351377 -0.084526405
-12.549549 -10.71892 -0.98591304
-13.013078 -12.359929 -0.91909778
-25.341167 -28.163656 0.14180776
-0.92359227 -1.1082554 0.2184654
-13.542342 -14.449179 -0.87075472
-14.008311 -16.677492 -0.76581728
-1.1387517 -0.83493739 0.30644599
-1.1812398 -0.90381408 0.32050854
-1.2288842 -0.85876238 0.23386313
-35.097427 -26.676836 1.4286289
-1.0180932 -0.94085127 0.32422042
-1.0836323 -1.0377095 0.34714267
-33.97065 -28.895313 1.8051634
-1.0619162 -0.97548521 0.26624531
-3.7880688 -2.6373668 -1.7241019
-3.7793584 -2.9147537 -1.7451338
-6.0357914 -6.4606094 -1.5824724
-5.9601102 -7.1016965 -1.591229
-3.6072576 -3.2090909 -1.7231345
-3.5670683 -3.514142 -1.7407074
-3.2137897 -2.7456205 -1.746636
-3.1667709 -2.9792852 -1.7511127
-3.4064174 -3.8550746 -1.7385916
-3.2927709 -4.1290441 -1.7244959
-3.0151093 -3.2731185 -1.7500322
-2.9335542 -3.5320649 -1.7495023
-5.1908007 -3.6231639 -1.6750376
-5.1439853 -3.9995677 -1.6737911
-4.4537001 -2.9613678 -1.6955041
-4.4269857 -3.2797487 -1.7034956
-4.9869165 -4.4271183 -1.6654197
-4.9642558 -4.8910975 -1.6790407
-4.2973256 -3.6539049 -1.7054974
-4.2294998 -3.9871826 -1.7151254
-4.7980003 -5.3790464 -1.6658434
-4.7584085 -5.9100146 -1.6769083
-4.0844579 -4.4025364 -1.7077653
-3.9919209 -4.7725639 -1.7101696
-7.4324026 -5.2247305 -1.4599282
-7.4481144 -5.8343263 -1.4567249
-6.2782426 -4.2014203 -1.5908656
-6.2274647 -4.6596346 -1.5965716
-7.3962631 -6.5691504 -1.4452116
-7.392302 -7.2685137 -1.4312065
-6.1660991 -5.2408271 -1.5934148
-6.1220179 -5.7852354 -1.5942035
-8.7747545 -6.1239042 -1.3089738
-8.9083939 -6.9177613 -1.3152859
-0.98338956 -1.0758609 0.28232539
-0.97198385 -1.105193 0.29423639
-8.8747063 -7.7964401 -1.2830251
-9.0003557 -8.7863646 -1.267966
-7.1138582 -6.0202737 -1.4717869
-7.1403365 -6.6637273 -1.4592113
-9.0377598 -9.9263296 -1.2539752
-9.1205502 -11.182057 -1.227512
-7.0143933 -7.4054136 -1.4533644
-6.9981995 -8.2058744 -1.447209
-18.021744 -12.532224 -0.60000837
-19.341824 -15.08232 -0.44012165
-11.883957 -7.9224658 -1.0689151
-12.327142 -9.1897306 -1.0177269
-20.667749 -18.164139 -0.29030573
-22.609356 -22.153364 -0.083790883
-12.590693 -10.618034 -0.98345089
-13.065765 -12.25467 -0.91696012
-25.401691 -27.876816 0.14210235
-0.93053746 -1.1024302 0.2184654
-13.565403 -14.292914 -0.86541021
-14.06499 -16.532782 -0.76250517
-1.1439753 -0.82776594 0.30644599
-1.1868955 -0.89637429 0.32050854
-1.2342558 -0.85102397 0.23386313
-1.1840699 -0.85687894 0.24522889
-1.0239847 -0.93443567 0.32422042
-1.0901312 -1.0308803 0.34714267
-33.627834 -28.241997 1.7806238
-1.0680244 -0.96879369 0.26624531
-3.8122187 -2.6187072 -1.7279029
-3.7931859 -2.887553 -1.7428979
-6.0667953 -6.4126048 -1.5797818
-5.9982705 -7.0566006 -1.5893848
-3.6259449 -3.1851408 -1.7224044
-3.5904112 -3.4929698 -1.74142
-3.2323763 -2.7265382 -1.7474649
-3.1801 -2.9543192 -1.7478697
-3.4318299 -3.834986 -1.7392864
-3.313946 -4.1023912 -1.7217996
-3.0293167 -3.2474349 -1.7460613
-2.9545095 -3.5121443 -1.7487295
-5.2055302 -3.5850616 -1.6722555
-5.1644464 -3.9636326 -1.6721677
-4.4944034 -2.9477224 -1.7047035
-4.4429345 -3.2484922 -1.7015696
-5.0117235 -4.3931646 -1.6643653
-4.9921274 -4.8571014 -1.6780221
-4.3172798 -3.6244032 -1.7042396
-4.2447591 -3.9514081 -1.7108229
-4.8290939 -5.3459249 -1.6648638
-4.7795415 -5.8603578 -1.6708112
-4.1133537 -4.3781719 -1.7083595
-4.0255256 -4.7517872 -1.7118963
-7.4602203 -5.1745739 -1.4588829
-7.4690595 -5.7753077 -1.4533828
-6.3012576 -4.1597538 -1.5899663
-6.2628827 -4.625071 -1.5983261
-7.4180489 -6.5056734 -1.4410825
-7.4265056 -7.2108746 -1.4288009
-6.1929011 -5.1969728 -1.5917292
-6.153964 -5.7426329 -1.5929867
-8.8146906 -6.0697699 -1.3092566
-8.9359827 -6.8495612 -1.3125913
-0.99012959 -1.069661 0.28232539
-0.97890854 -1.0990641 0.29423639
-8.9220142 -7.7392297 -1.282773
-9.0354033 -8.7103033 -1.2646841
-7.1424627 -5.9679141 -1.4696394
-7.1777258 -6.6147141 -1.4581933
-9.0958967 -9.864975 -1.2533222
-9.1691256 -11.098413 -1.2241305
-7.0580444 -7.3583555 -1.4527164
-7.0264277 -8.1347618 -1.441708
-18.088581 -12.410845 -0.59949249
-19.412457 -14.942178 -0.43932849
-11.925169 -7.8421865 -1.0680207
-12.363788 -9.0967045 -1.0156523
-20.734608 -17.99334 -0.28918332
-22.666243 -21.931536 -0.082742795
-12.637202 -10.522157 -0.9815681
-13.119103 -12.150601 -0.91494823
-25.458252 -27.588875 0.14240035
-0.9374457 -1.0965619 0.2184654
-13.600895 -14.15132 -0.8611567
-14.129517 -16.398628 -0.75981969
-1.1491536 -0.82056195 0.30644599
-1.192504 -0.88889927 0.32050854
-25.038977 -16.43656 0.77721983
-1.1894302 -0.84942251 0.24522889
-1.0298355 -0.92798358 0.32422042
-1.0965866 -1.0240105 0.34714267
-1.0950581 -0.94066691 0.2559399
-1.0740902 -0.96206403 0.26624531
-3.8316717 -2.5967622 -1.7294234
-3.8023877 -2.8569255 -1.738426
-6.0974317 -6.3644676 -1.577091
-6.0220366 -6.9948826 -1.5834837
-3.6487119 -3.1647213 -1.7238649
-3.6096046 -3.4677389 -1.7399948
-3.2480376 -2.7050195 -1.746636
-3.2026188 -2.9380124 -1.7503018
-3.4571238 -3.8147318 -1.7399813
-3.3408403 -4.0829515 -1.7224736
-3.0572701 -3.2362988 -1.7508266
-2.9717643 -3.4878678 -1.7456387
-5.2311392 -3.5544305 -1.6733683
-5.187717 -3.9299374 -1.6716264
-4.4985161 -2.9102607 -1.6987896
-4.4678493 -3.22386 -1.7034956
-5.0480084 -4.3691306 -1.6675283
-5.0225458 -4.8256402 -1.6780221
-4.3443685 -3.600821 -1.7061262
-4.2708969 -3.9259541 -1.7114376
-4.858645 -5.3112001 -1.6633946
-4.8261323 -5.8422375 -1.6745632
-4.1394577 -4.3508639 -1.7077653
-4.0478544 -4.7176485 -1.7084428
-7.4714155 -5.1132011 -1.4543535
-7.4911213 -5.7174597 -1.4503752
-6.3239961 -4.1179657 -1.5890669
-6.2682223 -4.5683112 -1.5917464
-7.4677548 -6.46667 -1.4429882
-7.4645457 -7.1572113 -1.4272976
-6.2148643 -5.1492624 -1.5887792
-6.1784348 -5.693202 -1.5897421
-8.8415585 -6.0270524 -1.3089738
-8.9571323 -6.7989616 -1.3107051
-0.99515957 -1.0649831 0.28232539
-0.9840771 -1.0944389 0.29423639
-8.9387856 -7.6803331 -1.279497
-9.0663157 -8.6580029 -1.2630432
-7.1568327 -5.9229364 -1.4664185
-7.2001061 -6.5728192 -1.4561574
-9.1300678 -9.8089256 -1.2513632
-9.2022467 -11.032123 -1.2211467
-7.0788779 -7.3108687 -1.4494762
-7.0543232 -8.0896177 -1.4392633
-18.138594 -12.319859 -0.59912401
-19.457237 -14.831112 -0.43848252
-11.970349 -7.7913194 -1.0689151
-12.366284 -9.0089226 -1.0116628
-20.769089 -17.852459 -0.28798842
-22.695766 -21.753839 -0.081805006
-12.682026 -10.458686 -0.98113358
-13.16153 -12.075127 -0.91369081
-25.392897 -27.259462 0.1428902
-0.94260293 -1.092132 0.2184654
-13.63819 -14.057007 -0.85886621
-14.173902 -16.294134 -0.75758171
-1.1530079 -0.81513745 0.30644599
-1.1966797 -0.88326967 0.32050854
-25.189976 -16.366249 0.77890003
-23.9688 -17.562672 1.0296477
-1.0341972 -0.92312014 0.32422042
-1.1014001 -1.0188315 0.34714267
-1.0994788 -0.93549597 0.2559399
-1.0786121 -0.95699179 0.26624531
-3.8346145 -2.5725448 -1.7248622
-3.8261898 -2.846787 -1.7436433
-6.1205134 -6.3286281 -1.575169
-6.0523624 -6.9634519 -1.582746
-3.6607473 -3.1450796 -1.7224044
-3.6245592 -3.4493949 -1.7392819
-3.2551043 -2.6850841 -1.7433199
-3.216429 -2.9228873 -1.7503018
-3.4737897 -3.7970202 -1.7392864
-3.3576608 -4.0642476 -1.7211256
-3.0712125 -3.2205346 -1.7500322
-2.986973 -3.4724197 -1.7448661
-5.2430363 -3.5265424 -1.6716992
-5.200038 -3.9008 -1.669462
-4.5217557 -2.8950939 -1.7027322
-4.4799204 -3.2005522 -1.7022115
-5.0567861 -4.3352933 -1.6633111
-5.046627 -4.803256 -1.6785312
-4.3583431 -3.5779119 -1.7048684
-4.2935553 -3.9096467 -1.7132815
-4.8836198 -5.2882442 -1.6633946
-4.846169 -5.8104453 -1.6717491
-4.1559291 -4.3271933 -1.7059828
-4.0762811 -4.7057848 -1.7113206
-7.500329 -5.0812349 -1.4553986
-7.4991436 -5.6677747 -1.4463649
-6.3367648 -4.0839171 -1.587268
-6.2707391 -4.5249557 -1.5864828
-7.4816213 -6.4173079 -1.4394944
-7.4881797 -7.1123981 -1.425193
-6.2390614 -5.1199179 -1.5887792
-6.1965413 -5.6560745 -1.5873086
-8.8644428 -5.9614711 -1.3064291
-8.987009 -6.7330122 -1.3085493
-1.0018315 -1.0587093 0.28232539
-0.99093431 -1.0882341 0.29423639
-8.9868689 -7.6240172 -1.279497
-9.0873661 -8.5694532 -1.2576513
-7.1908522 -5.8753686 -1.4657025
-7.229579 -6.5168605 -1.4534429
-9.183321 -9.7427006 -1.2500572
-9.2611294 -10.961904 -1.2195553
-7.1094356 -7.2507834 -1.4459119
-7.1010981 -8.0406799 -1.4383465
-18.202351 -12.196761 -0.59853446
-19.529287 -14.692917 -0.4377951
-12.005643 -7.7073674 -1.0674839
-12.401629 -8.9158792 -1.0095884
-20.841179 -17.688004 -0.28704703
-22.768145 -21.550262 -0.080995932
-12.7351 -10.368739 -0.97997499
-13.20612 -11.964004 -0.9110502
-25.435949 -26.964165 0.14320877
-0.94944644 -1.0861877 0.2184654
-13.702418 -13.946852 -0.85701203
-14.253581 -16.179241 -0.75606
-1.1581068 -0.80787659 0.30644599
-1.2022059 -0.87573314 0.32050854
-25.354641 -16.247519 0.7803129
-23.971823 -17.334314 1.0259842
-1.0399771 -0.9166038 0.32422042
-1.10778 -1.0118911 0.34714267
-1.1053351 -0.92856926 0.2559399
-1.0846039 -0.95019567 0.26624531
-3.8537996 -2.5504243 -1.7263827
-3.8320816 -2.8138366 -1.7376808
-6.1436276 -6.2732682 -1.5705562
-6.0921125 -6.9208474 -1.5816395
-3.6790097 -3.1208193 -1.7216742
-3.6393857 -3.4201186 -1.7357186
-3.2790029 -2.6702819 -1.7474649
-3.2293169 -2.8977032 -1.7470591
-3.4937346 -3.7710109 -1.7372017
-3.3831308 -4.0430703 -1.7211256
-3.0901046 -3.1998608 -1.749238
-3.0099361 -3.4549806 -1.7456387
-5.2715111 -3.4977517 -1.6739247
-5.2198162 -3.864594 -1.6678386
-4.5158257 -2.8516135 -1.6928759
-4.5014844 -3.1734397 -1.7028536
-5.0898356 -4.3083978 -1.6654197
-5.0809212 -4.7754416 -1.680059
-4.3688946 -3.5409479 -1.6998372
-4.3025308 -3.868525 -1.7065204
-4.9127626 -5.2532206 -1.6619256
-4.8763347 -5.7724333 -1.669404
-4.1843734 -4.3023582 -1.7065769
-4.0982261 -4.6714091 -1.7078673
-7.5173435 -5.0242014 -1.4522628
-7.533031 -5.61936 -1.4460309
-6.347466 -4.0346637 -1.5832207
-6.3006315 -4.4866028 -1.5869213
-7.5172653 -6.3663559 -1.4385417
-7.5269666 -7.059782 -1.4239904
-6.257401 -5.0695825 -1.5849862
-6.2218032 -5.6078181 -1.5844696
-8.8901558 -5.8980241 -1.30445
-9.010047 -6.6622305 -1.3053157
-69.411354 -69.932266 5.5690436
-0.99775219 -1.0819864 0.29423639
-9.0254478 -7.5597773 -1.2779847
-9.145381 -8.5162592 -1.2583547
-7.2138095 -5.8189926 -1.4624815
-7.2645054 -6.4660506 -1.4520856
-9.2292233 -9.6690197 -1.247663
-9.313036 -10.883813 -1.2169694
-7.1367283 -7.1878119 -1.4416995
-7.1317658 -7.9737582 -1.4337624
-18.243584 -12.059052 -0.59698689
-19.616405 -14.566342 -0.43763644
-12.04372 -7.6254082 -1.0664104
-12.437914 -8.8239079 -1.0076734
-20.896683 -17.510529 -0.28574359
-22.8447 -21.352112 -0.080260411
-12.787541 -10.278541 -0.97881639
-13.269141 -11.870128 -0.91004419
-25.567539 -26.764799 0.14330125
-0.95625228 -1.0802009 0.2184654
-13.76016 -13.830793 -0.85472167
-14.328387 -16.059517 -0.7542696
-1.1631597 -0.80058438 0.30644599
-1.2076845 -0.86816233 0.32050854
-25.52726 -16.132698 0.78191674
-1.2039289 -0.82874465 0.24522889
-1.0457156 -0.91005147 0.32422042
-1.1141157 -1.0049108 0.34714267
-43.863049 -35.100067 2.2209017
-1.0905527 -0.94336236 0.26624531
-3.8713021 -2.5271633 -1.7271428
-3.8556726 -2.7940927 -1.740662
-6.1843076 -6.2359343 -1.5709405
-6.1237407 -6.8691945 -1.57832
-3.6971116 -3.0964546 -1.7209442
-3.6662555 -3.4022982 -1.7385693
-3.2871623 -2.6428368 -1.742491
-3.2542651 -2.8834596 -1.7511127
-3.5186486 -3.7503462 -1.7378966
-3.4193606 -4.0347166 -1.7271924
-3.1062758 -3.1764681 -1.7468555
-3.031584 -3.4360011 -1.7456387
-5.2756548 -3.4530621 -1.6678044
-5.2408943 -3.8294375 -1.6667564
-4.530437 -2.8212028 -1.6915616
-4.5228848 -3.1461828 -1.7034956
-5.1123486 -4.2726388 -1.6638381
-5.1037607 -4.7368188 -1.6775129
-4.394032 -3.5157866 -1.701095
-4.3380928 -3.8515754 -1.7114376
-4.9483485 -5.2250562 -1.6629049
-4.9238362 -5.7550154 -1.6736251
-4.2072854 -4.2719183 -1.7047945
-4.1274962 -4.6455679 -1.7078673
-7.5454679 -4.9747124 -1.451566
-7.557096 -5.5637045 -1.4436915
-6.3677254 -3.9916151 -1.5818714
-6.3255115 -4.4446726 -1.5860441
-7.5449705 -6.3088975 -1.4360003
-7.5610437 -7.0029206 -1.4218856
-6.2768841 -5.0204382 -1.581615
-6.2569137 -5.5686159 -1.5844696
-8.9170837 -5.8355684 -1.3027537
-9.0405426 -6.5972834 -1.3034295
-69.859291 -69.504616 5.5698051
-1.0045309 -1.0756961 0.29423639
-9.0589857 -7.4915705 -1.2757167
-9.1753626 -8.4370689 -1.2546039
-7.2471447 -5.7711091 -1.4617658
-7.3005605 -6.4163632 -1.4510677
-9.2801018 -9.600853 -1.2461394
-9.3604288 -10.800982 -1.2137867
-7.1803474 -7.1414409 -1.4413755
-7.1751108 -7.9214501 -1.4322346
-18.285484 -11.922395 -0.59551305
-19.697874 -14.435699 -0.43731922
-12.04234 -7.5190792 -1.0612221
-12.475168 -8.7329769 -1.005918
-20.973911 -17.352144 -0.28498322
-22.888832 -21.12534 -0.079138771
-12.825277 -10.176956 -0.97635436
-13.321052 -11.766666 -0.90815818
-25.690672 -26.557655 0.14341086
-0.96302056 -1.0741713 0.2184654
-13.807054 -13.704724 -0.85166776
-14.399579 -15.936521 -0.7523002
-1.1681671 -0.79326016 0.30644599
-1.2131156 -0.86055714 0.32050854
-25.690945 -16.011066 0.78332967
-24.212259 -17.049 1.0268168
-1.0514129 -0.90346313 0.32422042
-1.1204081 -0.99789071 0.34714267
-44.162743 -34.886921 2.224561
-1.0964586 -0.93649155 0.26624531
-3.8636904 -2.4878986 -1.7157401
-3.8731523 -2.7698119 -1.740662
-6.2122092 -6.1859074 -1.5678654
-6.157589 -6.8203435 -1.5757384
-3.7107294 -3.0684488 -1.7180232
-3.6916738 -3.383004 -1.7407074
-3.3094337 -2.626622 -1.7458071
-3.2668433 -2.8581071 -1.7478697
-3.5408452 -3.7268107 -1.7372017
-3.4324503 -3.9988043 -1.7204514
-3.1183774 -3.1491079 -1.74209
-3.0494497 -3.4127374 -1.7433207
-5.3085752 -3.4270923 -1.6716992
-5.264852 -3.7964325 -1.6667564
-4.5626044 -2.8015065 -1.6974754
-4.5410075 -3.1166234 -1.7028536
-5.1361084 -4.2379885 -1.6627839
-5.1248975 -4.6967845 -1.6744578
-4.3995881 -3.4752398 -1.6941772
-4.3607821 -3.8229809 -1.7108229
-4.9743452 -5.1868882 -1.6604563
-4.9370728 -5.6974382 -1.6651831
-4.2326894 -4.2440524 -1.7042003
-4.1515026 -4.6138253 -1.7055647
-7.5484567 -4.9090319 -1.4456426
-7.5855365 -5.5114574 -1.4423546
-6.3860354 -3.9474509 -1.5800728
-6.334116 -4.3914347 -1.5807804
-7.5692019 -6.2488356 -1.4328244
-7.5888834 -6.9405556 -1.4185784
-6.306766 -4.979692 -1.5811932
-6.2815108 -5.5201106 -1.5816306
-8.9452419 -5.7740784 -1.30134
-9.0657606 -6.5287323 -1.3007348
-70.310287 -69.079712 5.5710015
-1.0112697 -1.0693634 0.29423639
-9.1043367 -7.4332533 -1.2754648
-9.225255 -8.3765764 -1.254135
-7.2770596 -5.7206144 -1.4603342
-7.3303337 -6.3612962 -1.4486924
-9.3304863 -9.5324287 -1.2446158
-9.4241772 -10.737462 -1.21319
-7.219429 -7.0906677 -1.4400793
-7.2114134 -7.8616147 -1.4291786
-18.324703 -11.784611 -0.59396547
-19.775234 -14.302266 -0.4368962
-12.077458 -7.4359798 -1.0599697
-12.516683 -8.6453352 -1.0046414
-21.020523 -17.169483 -0.28353488
-22.945784 -20.91234 -0.078200981
-12.866951 -10.078987 -0.97432685
-13.364672 -11.656453 -0.90564322
-25.763187 -26.300056 0.14364037
-0.96975046 -1.0680995 0.2184654
-13.867182 -13.592575 -0.8497045
-14.481915 -15.826551 -0.75113654
-1.1731281 -0.78590482 0.30644599
-1.2184985 -0.85291809 0.32050854
-25.869444 -15.897424 0.78508621
-24.363201 -16.927374 1.0283155
-1.0570687 -0.8968392 0.32422042
-1.1266556 -0.99083149 0.34714267
-44.423634 -34.641922 2.2264984
-1.1023208 -0.92958391 0.26624531
-3.8996186 -2.476351 -1.7256224
-3.8783946 -2.7367954 -1.7346996
-6.2467408 -6.1426373 -1.5667121
-6.1910625 -6.7713385 -1.5731564
-3.7328327 -3.0474131 -1.7194836
-3.7128563 -3.3597422 -1.7407074
-3.3229923 -2.6035495 -1.7441491
-3.2888653 -2.8411353 -1.7503018
-3.5563483 -3.6964204 -1.7330322
-3.4599636 -3.9800131 -1.7217996
-3.1472528 -3.1384721 -1.7476497
-3.072062 -3.3948855 -1.7440934
-5.3202548 -3.3875206 -1.6683607
-5.2698302 -3.7498066 -1.6602627
-4.5930815 -2.7805479 -1.7027322
-4.5573716 -3.0858915 -1.7015696
-5.1656356 -4.2080593 -1.6638381
-5.1528769 -4.6631885 -1.6739488
-4.4348593 -3.4579728 -1.6998372
-4.3861489 -3.7967589 -1.7114376
-5.0095477 -5.1583042 -1.6614357
-4.9804363 -5.6751003 -1.6679971
-4.2565455 -4.2146993 -1.703012
-4.1816936 -4.5890713 -1.7061404
-7.5874548 -4.8668013 -1.4473848
-7.5912275 -5.4429269 -1.4363391
-6.4073763 -3.905232 -1.5791732
-6.3567615 -4.3482285 -1.5794644
-7.6021781 -6.1961813 -1.4315538
-7.6220922 -6.8834352 -1.4164736
-6.334837 -4.9375744 -1.5803504
-6.3101683 -5.4753823 -1.5800084
-8.9863625 -5.7209373 -1.3021883
-9.0840235 -6.4555168 -1.2969623
-70.752983 -68.646301 5.571763
-1.0179687 -1.0629882 0.29423639
-9.1384811 -7.3659682 -1.2734486
-9.2511358 -8.2945251 -1.2499155
-7.3050699 -5.6687684 -1.4585446
-7.359705 -6.306108 -1.4463173
-9.3649549 -9.4482479 -1.2406979
-9.4716654 -10.655689 -1.2102062
-7.2439551 -7.0259809 -1.4355431
-7.2499337 -7.8045363 -1.4267337
-18.371361 -11.652143 -0.59278631
-19.838694 -14.159121 -0.43605018
-12.108598 -7.3506732 -1.0583594
-12.552655 -8.5541391 -1.0028861
-21.093714 -17.009487 -0.28273833
-22.987598 -20.68741 -0.077097699
-12.900006 -9.9748058 -0.97157502
-13.402905 -11.542242 -0.90275109
-25.860271 -26.069555 0.14380479
-0.9764424 -1.0619853 0.2184654
-13.923576 -13.477437 -0.84752309
-14.558013 -15.710304 -0.74961472
-1.1780429 -0.77851838 0.30644599
-1.2238333 -0.84524524 0.32050854
-26.016729 -15.76354 0.78615546
-24.523462 -16.811314 1.0301472
-1.0626829 -0.89017969 0.32422042
-1.132859 -0.983733 0.34714267
-1.1283208 -0.90049893 0.2559399
-1.1081398 -0.92263949 0.26624531
-3.9151008 -2.4518001 -1.7256224
-3.8985484 -2.7145102 -1.7361901
-6.2739167 -6.0923615 -1.563637
-6.2201729 -6.717844 -1.5694683
-3.7489944 -3.0215776 -1.7180232
-3.7366667 -3.3388517 -1.7421327
-3.3436251 -2.5859327 -1.746636
-3.2983479 -2.8132455 -1.7454374
-3.5821342 -3.6766758 -1.7344221
-3.4787159 -3.9510977 -1.7184291
-3.1537571 -3.1058331 -1.7397075
-3.0896163 -3.3714144 -1.7417754
-5.3316479 -3.3479364 -1.6650224
-5.2964292 -3.7188473 -1.661345
-4.5990739 -2.7449117 -1.6981324
-4.5625405 -3.0476599 -1.6957915
-5.1768928 -4.1634879 -1.6585666
-5.1906991 -4.638485 -1.6770039
-4.4534793 -3.4277375 -1.6985794
-4.3998294 -3.7604237 -1.707135
-5.0391302 -5.123971 -1.6604563
-5.0108495 -5.6378641 -1.666121
-4.2774582 -4.1825542 -1.7006352
-4.2026873 -4.5542278 -1.7026869
-7.6095471 -4.8137908 -1.4456426
-7.6349149 -5.4019814 -1.4383441
-6.4234185 -3.8599067 -1.5769248
-6.3871841 -4.3103957 -1.5803417
-7.6240015 -6.1347208 -1.4280601
-7.6563563 -6.8274889 -1.4146695
-6.3377743 -4.8763051 -1.5727646
-6.3385129 -5.4305105 -1.5783859
-9.010376 -5.6570201 -1.3002092
-9.1244059 -6.3983116 -1.2969623
-71.197319 -68.214195 5.5728502
-1.0246277 -1.056571 0.29423639
-9.1736965 -7.2997799 -1.2716845
-9.2971325 -8.2309542 -1.2489777
-7.3280206 -5.6132188 -1.4556814
-7.3931775 -6.2546315 -1.4449599
-9.401557 -9.3668118 -1.2372153
-9.5278006 -10.584112 -1.2086148
-7.2822428 -6.9748807 -1.4342469
-7.28127 -7.7400713 -1.4227611
-18.434038 -11.530134 -0.59234416
-19.932167 -14.037647 -0.43620884
-12.135722 -7.2632279 -1.0563914
-12.59624 -8.4684086 -1.0019286
-21.20487 -16.880342 -0.28284693
-23.034969 -20.469433 -0.076086387
-12.949725 -9.883894 -0.97041643
-13.452382 -11.438371 -0.90086496
-25.917185 -25.800802 0.1440617
-0.98309594 -1.0558289 0.2184654
-13.983411 -13.366258 -0.84566891
-14.642782 -15.603934 -0.74871951
-1.1829114 -0.771101 0.30644599
-1.2291201 -0.83753878 0.32050854
-23.030529 -13.760691 0.71757239
-24.668331 -16.683809 1.0314794
-1.0682552 -0.88348502 0.32422042
-1.1390176 -0.97659546 0.34714267
-1.1339567 -0.89339155 0.2559399
-1.1139151 -0.91565847 0.26624531
-3.9177935 -2.4194472 -1.719541
-3.9185755 -2.6920795 -1.7376808
-6.3092308 -6.0501113 -1.5628682
-6.2636008 -6.6800656 -1.5698371
-3.7693686 -2.9991133 -1.7187535
-3.7478085 -3.306602 -1.7371439
-3.3525393 -2.5593948 -1.742491
-3.3201334 -2.7960241 -1.7478697
-3.6038411 -3.6527674 -1.7337272
-3.5072122 -3.9333971 -1.7204514
-3.1785033 -3.0910437 -1.7428844
-3.1045029 -3.3451385 -1.7379118
-5.3640404 -3.3214023 -1.6689172
-5.316535 -3.6832888 -1.6602627
-4.6309252 -2.7245102 -1.7040462
-4.5926371 -3.0262794 -1.7002854
-5.190825 -4.1213284 -1.6543493
-5.2125139 -4.5993533 -1.6744578
-4.4703774 -3.3962624 -1.6966927
-4.4277177 -3.7364061 -1.708979
-5.0684795 -5.0894694 -1.6594768
-5.0578356 -5.6193142 -1.6703421
-4.3036542 -4.1555953 -1.7006352
-4.2338233 -4.5305414 -1.7038381
-7.6262522 -4.7575817 -1.4428552
-7.6654797 -5.3516364 -1.4376758
-6.4458632 -3.8184822 -1.5764749
-6.3930736 -4.2560501 -1.5746393
-7.6546502 -6.0805755 -1.4264717
-7.6857791 -6.7674532 -1.4119635
-6.3714108 -4.8387418 -1.5736077
-6.3635621 -5.3829603 -1.5759524
-9.0234585 -5.6061745 -1.2979473
-9.14958 -6.3518448 -1.2961539
-71.546951 -67.905434 5.5750256
-1.0295949 -1.0517311 0.29423639
-9.1986275 -7.2491255 -1.2701726
-9.3104744 -8.1647396 -1.2449926
-7.3386784 -5.5667791 -1.4521024
-7.4120169 -6.2108355 -1.4425848
-9.4413366 -9.3182249 -1.2365624
-9.5615406 -10.521397 -1.2062278
-7.3135939 -6.9391351 -1.4339229
-7.3040853 -7.6913104 -1.419705
-18.483061 -11.439995 -0.59212309
-19.97187 -13.925247 -0.43536288
-12.164665 -7.2029276 -1.0558546
-12.622742 -8.4001017 -1.000652
-21.315609 -16.804968 -0.28357112
-23.071167 -20.307756 -0.075350866
-12.986595 -9.8155613 -0.96954739
-13.483259 -11.355535 -0.89897871
-25.951546 -25.592793 0.14427066
-0.98806024 -1.0511849 0.2184654
-14.018653 -13.274168 -0.84359658
-14.685958 -15.502816 -0.74675018
-1.1865317 -0.76551849 0.30644599
-1.2330531 -0.83173782 0.32050854
-22.395836 -13.239573 0.70206863
-24.842968 -16.631977 1.0346987
-1.0724063 -0.87844157 0.32422042
-1.1436069 -0.97121751 0.34714267
-1.1381539 -0.88803846 0.2559399
-1.1182173 -0.9103995 0.26624531
-3.9402387 -2.4076493 -1.7248622
-3.9174569 -2.6641164 -1.730973
-6.3276811 -6.0108829 -1.5601776
-6.2788415 -6.6333003 -1.5654111
-3.7790534 -2.9778852 -1.7165629
-3.76755 -3.2926166 -1.7392819
-3.3776906 -2.5533674 -1.7499518
-3.3304782 -2.7779891 -1.7462482
-3.6223435 -3.6370673 -1.7344221
-3.5206957 -3.9112039 -1.7177551
-3.1956918 -3.0785635 -1.7444727
-3.1202314 -3.3304729 -1.7379118
-5.3747058 -3.2930994 -1.667248
-5.3354158 -3.659292 -1.6608038
-4.6518979 -2.7073705 -1.7073318
-4.603683 -3.0025208 -1.6990016
-5.2147512 -4.1003823 -1.6559308
-5.221066 -4.5632367 -1.6698754
-4.4893761 -3.377429 -1.6979506
-4.4438205 -3.7142739 -1.7083644
-5.0924058 -5.0655298 -1.6594768
-5.0790491 -5.5896454 -1.6684661
-4.3190308 -4.1313276 -1.6988525
-4.2616673 -4.5175347 -1.7067159
-7.6469064 -4.7205648 -1.4425068
-7.6598511 -5.2940693 -1.4313262
-6.4519916 -3.7812102 -1.5733269
-6.4114323 -4.2247987 -1.5742007
-7.6567793 -6.0237536 -1.4210722
-7.7131219 -6.727252 -1.4110614
-6.3847423 -4.8016462 -1.571079
-6.3843656 -5.3491278 -1.5747358
-9.0551224 -5.5473061 -1.2973818
-9.1713524 -6.2818694 -1.2931898
-71.991142 -67.472305 5.5764394
-1.036183 -1.0452412 0.29423639
-9.2455616 -7.192399 -1.2704245
-9.3615913 -8.1060781 -1.2449926
-7.3624616 -5.5123348 -1.4495971
-7.4311957 -6.1477551 -1.4381737
-9.4768763 -9.2365618 -1.2330798
-9.6180439 -10.450845 -1.2048354
-7.3440561 -6.8809338 -1.4310067
-7.3440676 -7.6366968 -1.4178712
-18.546041 -11.318439 -0.59175456
-20.070494 -13.807427 -0.43573296
-12.173515 -7.1053314 -1.0520974
-12.661955 -8.3118486 -0.99937528
-21.43025 -16.678066 -0.28378832
-23.115347 -20.090168 -0.074339524
-13.036806 -9.7254381 -0.96853364
-13.534416 -11.253973 -0.89734411
-26.037281 -25.356722 0.14444879
-0.99464548 -1.0449558 0.2184654
-14.076952 -13.162671 -0.8417424
-14.759591 -15.385696 -0.74522841
-1.1913182 -0.75804818 0.30644599
-1.2382549 -0.82397377 0.32050854
-21.885633 -12.753866 0.68897063
-25.005337 -16.514168 1.0366415
-1.0779046 -0.87168604 0.32422042
-1.1496867 -0.96401274 0.34714267
-1.1437112 -0.88086957 0.2559399
-1.1239157 -0.90335542 0.26624531
-3.9568784 -2.38379 -1.7256224
-3.9448671 -2.6467466 -1.7361901
-6.3524046 -5.9589591 -1.5567179
-6.3176837 -6.5908723 -1.5646734
-3.8050687 -2.9597578 -1.720214
-3.7895722 -3.2701073 -1.7399948
-3.3907359 -2.5299351 -1.7482939
-3.3605063 -2.7675447 -1.7535448
-3.6451247 -3.6142356 -1.7344221
-3.5477245 -3.8918014 -1.7191033
-3.2122977 -3.0559089 -1.7428844
-3.1436198 -3.3134935 -1.7394574
-5.3755097 -3.2474253 -1.6605711
-5.3376279 -3.6115854 -1.653769
-4.6556726 -2.6706319 -1.702075
-4.6176934 -2.970439 -1.6970755
-5.2358265 -4.0640049 -1.6543493
-5.2554717 -4.5354176 -1.671912
-4.4998021 -3.3412814 -1.6935482
-4.4582949 -3.6789713 -1.7046764
-5.121356 -5.0307255 -1.6584973
-5.1127582 -5.5561872 -1.6679971
-4.344903 -4.1041093 -1.6988525
-4.2899675 -4.4906688 -1.7067159
-7.6663046 -4.6663094 -1.4404162
-7.6929631 -5.2458358 -1.4313262
-6.4705505 -3.73769 -1.571978
-6.4264235 -4.1769485 -1.5711303
-7.6991649 -5.979146 -1.4220252
-7.7387938 -6.6644216 -1.4077542
-6.4069176 -4.7556329 -1.5689719
-6.4103227 -5.3026423 -1.5727079
-9.0881014 -5.4892836 -1.297099
-9.2139187 -6.2263479 -1.2937286
-72.425385 -67.029495 5.5773096
-1.0427297 -1.0387102 0.29423639
-9.2606182 -7.1112738 -1.2656362
-9.3927479 -8.0302782 -1.241945
-7.3842645 -5.4566483 -1.446734
-7.468153 -6.0996923 -1.4378343
-9.5246754 -9.1672049 -1.2315561
-9.6604977 -10.365417 -1.2014538
-7.3755283 -6.8239627 -1.4284145
-7.3795242 -7.5776277 -1.4151208
-18.573946 -11.175981 -0.58991224
-20.176687 -13.694547 -0.43636751
-12.226562 -7.0336552 -1.0529921
-12.698884 -8.2223511 -0.99793917
-21.531445 -16.540655 -0.2837159
-23.157707 -19.872831 -0.073328212
-13.076748 -9.6279945 -0.96665096
-13.584825 -11.152219 -0.8957094
-26.099436 -25.099812 0.14467828
-1.0011914 -1.0386858 0.2184654
-14.132933 -13.049615 -0.83977926
-14.832331 -15.268264 -0.74370658
-1.1960574 -0.75054806 0.30644599
-1.2434074 -0.81617755 0.32050854
-21.363291 -12.271135 0.67571986
-25.178921 -16.402624 1.0389727
-1.0833601 -0.86489618 0.32422042
-1.1557208 -0.95677018 0.34714267
-37.590405 -27.555292 1.8773471
-1.1295692 -0.896276 0.26624531
-3.9526277 -2.3476532 -1.7165003
-3.9645033 -2.6239743 -1.7376808
-6.3897195 -5.9189291 -1.5567179
-6.3384933 -6.5298328 -1.5591412
-3.8176577 -2.9312878 -1.717293
-3.8015468 -3.2389169 -1.7357186
-3.4050927 -2.5075107 -1.7474649
-3.3665352 -2.7370808 -1.7470591
-3.6650677 -3.5886509 -1.7330322
-3.5708368 -3.8680441 -1.7184291
-3.2273991 -3.0319188 -1.7405019
-3.1592948 -3.2883263 -1.7363666
-5.3941531 -3.2126102 -1.6600147
-5.3793797 -3.5908821 -1.6602627
-4.6674132 -2.6385627 -1.7001038
-4.6362653 -2.9413667 -1.6970755
-5.2566485 -4.0275259 -1.6527678
-5.2735925 -4.4934888 -1.6683476
-4.5237799 -3.3151727 -1.694806
-4.4813218 -3.650887 -1.7046764
-5.1556568 -5.0011382 -1.6594768
-5.1264372 -5.5011225 -1.6604929
-4.3677998 -4.0741358 -1.6976643
-4.3180981 -4.4636259 -1.7067159
-7.6853228 -4.611999 -1.4383256
-7.712708 -5.1885557 -1.4286528
-6.4905133 -3.695045 -1.5710785
-6.4459839 -4.1322536 -1.5693756
-7.7255878 -5.9222732 -1.4198017
-7.7684894 -6.6053877 -1.4053487
-6.4192805 -4.7026315 -1.5643361
-6.4329214 -5.2535572 -1.5698688
-9.1121893 -5.4260192 -1.2954026
-9.2281628 -6.1517863 -1.2896867
-72.883453 -66.608131 5.5801373
-1.0492355 -1.032138 0.29423639
-9.3067017 -7.0541425 -1.2658883
-9.4399881 -7.9685354 -1.2414763
-7.4040651 -5.3997493 -1.443513
-7.4971447 -6.0451999 -1.4357984
-9.5604305 -9.0866756 -1.2282912
-9.7145271 -10.292914 -1.1998624
-7.4036536 -6.7642117 -1.4251741
-7.4159164 -7.5198269 -1.4126762
-18.645519 -11.060073 -0.58998591
-20.267313 -13.570845 -0.43652606
-12.254902 -6.9478817 -1.0513819
-12.741903 -8.1370201 -0.99714118
-21.638136 -16.407457 -0.28378832
-23.204353 -19.660933 -0.072390422
-13.128906 -9.5397911 -0.96592677
-13.648433 -11.061605 -0.89520645
-26.157944 -24.841745 0.14491121
-1.0076979 -1.0323747 0.2184654
-14.19544 -12.943091 -0.83836138
-14.908381 -15.154805 -0.74245334
-1.2007498 -0.74301815 0.30644599
-1.2485111 -0.80834889 0.32050854
-21.083021 -11.935102 0.66789162
-25.345364 -16.285219 1.041082
-1.0887731 -0.85807222 0.32422042
-1.1617097 -0.94948965 0.34714267
-37.736877 -27.299829 1.8761991
-50.938641 -41.36911 3.0530615
-3.9785125 -2.3292515 -1.7218215
-3.9638789 -2.5877588 -1.7294825
-6.4166169 -5.8694215 -1.5540271
-6.3615346 -6.4716024 -1.5543463
-3.8345108 -2.9061267 -1.7165629
-3.8061614 -3.2016528 -1.727879
-1.1151737 -0.83202422 -0.45508489
-3.39218 -2.7227924 -1.7519236
-3.6861889 -3.564255 -1.7323374
-3.5925117 -3.842768 -1.7170808
-3.2504444 -3.0153017 -1.7428844
-3.1862874 -3.275058 -1.74023
-5.4175529 -3.1805856 -1.6611274
-5.4034395 -3.5580771 -1.6608038
-4.6872096 -2.6110067 -1.7014179
-4.6530542 -2.911166 -1.6964335
-5.2787642 -3.9921024 -1.6517136
-5.2972956 -4.4565134 -1.6668203
-4.5445204 -3.2866838 -1.694806
-4.5056505 -3.6238575 -1.705291
-5.1659007 -4.9486017 -1.6521308
-5.154253 -5.4617105 -1.6581479
-4.394722 -4.0478992 -1.6982584
-4.3367162 -4.4267893 -1.7026869
-7.7073569 -4.559628 -1.4369318
-7.7402358 -5.1367078 -1.4276501
-6.5016818 -3.6475582 -1.5679307
-6.4718204 -4.0916705 -1.5693756
-7.7516022 -5.8653049 -1.4175785
-7.8068166 -6.5538969 -1.4047474
-6.4502902 -4.6633458 -1.5647578
-6.4597206 -5.2080975 -1.5682465
-9.1461029 -5.3686581 -1.2954026
-9.2583675 -6.0882168 -1.2883394
-73.32872 -66.174286 5.5822039
-69.411644 -69.81604 6.3408976
-9.3492489 -6.9943414 -1.2656362
-9.4700689 -7.8924904 -1.2384287
-7.4394479 -5.3542652 -1.4438709
-7.5349798 -5.9979744 -1.4357984
-9.6144314 -9.0237103 -1.2278559
-9.7625408 -10.214378 -1.1974754
-7.4474778 -6.7188768 -1.4254981
-7.4532676 -7.4632683 -1.4105371
-18.692198 -10.929613 -0.58902794
