-11.52524 21.096943 -0.86706126
-6.7935252 27.41707 2.2955546
-7.9137201 25.824125 2.3636603
-6.311172 28.06311 0.75453699
-7.5207138 26.423929 0.96742475
-9.0428829 24.322462 2.5084932
-9.9733543 23.087353 2.6589961
-8.6226177 24.932402 1.1512046
-9.6326733 23.585876 1.3099132
-1.0771514 4.4806991 -1.7210613
-1.326591 4.5344472 -1.725756
-4.1473098 8.6546469 -1.7304647
-4.8396792 8.8479757 -1.7439234
-1.6663347 4.4976954 -1.7107214
-1.9677345 4.5821128 -1.732868
-1.2969432 3.7235897 -1.6173149
-1.6115518 4.0047688 -1.7373302
-2.35026 4.5719776 -1.7372017
-2.6618311 4.5918555 -1.7339332
-1.2353978 2.5087233 -1.0344467
-2.1951015 3.9674797 -1.7255489
-1.5117218 6.2577934 -1.7061961
-1.9039588 6.4105039 -1.721952
-1.1475738 5.2682862 -1.7106171
-1.4564435 5.3587003 -1.7182617
-2.3661325 6.4096889 -1.7102281
-2.8373697 6.6037817 -1.736578
-1.2782103 3.6783519 -1.1269082
-2.2022784 5.4552588 -1.7378675
-3.4188759 6.7307215 -1.7520359
-3.9047351 6.807725 -1.7397549
-1.2314578 2.513664 -0.71013314
-3.0437725 5.5449095 -1.7412515
-2.500344 10.215279 -1.7132366
-3.1674716 10.514759 -1.7143881
-1.7479548 7.9191403 -1.7190325
-2.2212417 8.0162115 -1.7180756
-4.0255184 10.906891 -1.7240851
-4.8209558 11.243713 -1.7150394
-1.2734057 3.6497693 -0.68228298
-3.4066072 8.4052458 -1.7280443
-3.1022832 12.867985 -1.6711538
-3.971072 13.383573 -1.6798732
-10.518309 22.27223 1.5443772
-11.374159 21.133406 1.6988968
-5.0647435 13.958037 -1.6686063
-6.252573 14.725833 -1.6716425
-3.4333358 10.033099 -1.7054936
-4.1637707 10.456341 -1.7153958
-7.6248245 15.408474 -1.6664417
-9.3279943 16.492212 -1.6790566
-5.0058866 10.636137 -1.7086968
-5.886642 10.964777 -1.7039127
-6.6317697 27.689314 -0.84047276
-7.7820697 26.067413 -0.5109219
-4.4892492 20.54472 -1.6748879
-6.2530308 22.689642 -1.6708838
-8.9878712 24.716026 -0.26829141
-9.8953295 23.22802 -0.024894565
-7.6914091 22.614517 -1.5219166
-9.2593613 23.081665 -1.3551767
-10.879384 21.963413 0.16471717
-11.720589 20.73876 0.41252828
-10.535624 22.439737 -1.1430981
-11.440841 21.258619 -0.87162662
-6.6532588 27.593031 2.3057559
-7.7880383 25.995525 2.3738742
-6.1619015 28.22727 0.7569809
-7.3889055 26.593912 0.97097719
-8.9286757 24.485525 2.5185912
-9.8647423 23.235638 2.6681416
-8.5022449 25.094025 1.1552945
-9.5170994 23.727501 1.3137307
-1.047744 4.481967 -1.7187806
-1.2949553 4.5320029 -1.7212842
-4.0936813 8.682313 -1.7308493
-4.7858634 8.8816652 -1.7446611
-1.6361624 4.5028162 -1.7085307
-1.938905 4.5943866 -1.732868
-1.2712153 3.7247601 -1.6139992
-1.5829464 4.0063338 -1.7332766
-0.60688597 1.1560962 -0.31610543
-2.629158 4.6019683 -1.7312367
-1.2164698 2.5097995 -1.0312698
-2.1745906 3.9892669 -1.7294124
-1.4736681 6.2727842 -1.7078652
-1.8630984 6.4204931 -1.7214108
-1.1167383 5.2864928 -1.7145597
-1.4237323 5.3714032 -1.7195456
-2.3277612 6.4298787 -1.7118094
-2.7882328 6.6036882 -1.7314861
-1.2532732 3.6809068 -1.1250215
-2.1651213 5.4619236 -1.7354089
-3.3808246 6.7607579 -1.7544847
-3.8589957 6.8270564 -1.7383479
-1.2131994 2.5161684 -0.70835054
-3.0061181 5.5588818 -1.7395246
-2.4347548 10.225036 -1.7121913
-3.1030264 10.540126 -1.7153908
-1.6953487 7.9166188 -1.7158846
-2.1697993 8.0262451 -1.7171981
-3.9555721 10.928252 -1.7234499
-4.7478976 11.26832 -1.7141373
-1.2479682 3.6502819 -0.68059731
-3.3427858 8.3992214 -1.7219607
-3.0416141 12.882461 -1.6711538
-3.9107554 13.411644 -1.6812207
-10.448626 22.397596 1.5489452
-11.30358 21.241364 1.702755
-4.9955931 13.972401 -1.6673461
-6.1846552 14.758792 -1.6721113
-3.3785362 10.026771 -1.7011988
-4.1108298 10.466681 -1.7136991
-7.5486522 15.437082 -1.6655711
-9.2842665 16.596725 -1.6860188
-4.954885 10.657814 -1.708373
-5.8525867 11.025526 -1.7097191
-6.5362258 27.870119 -0.84614724
-7.6969891 26.232292 -0.5144645
-4.3837047 20.524727 -1.6711308
-6.1680002 22.799656 -1.6775861
-8.9029226 24.846613 -0.26999319
-9.823842 23.364683 -0.025795564
-7.6100159 22.726196 -1.5277097
-9.1563864 23.139881 -1.3561827
-10.812621 22.08992 0.16457331
-11.657934 20.856567 0.41315261
-10.460789 22.556198 -1.1471337
-11.351828 21.333447 -0.87270081
-6.5569544 27.767752 2.3166964
-7.6954031 26.133265 2.382333
-6.0628953 28.416386 0.76011223
-7.3020501 26.769197 0.97502917
-8.8501453 24.630472 2.5283341
-9.7844477 23.351597 2.6755359
-8.4166975 25.232433 1.1590258
-9.4420366 23.864944 1.3180689
-1.027418 4.4904656 -1.720301
-1.2725632 4.5344868 -1.7197937
-4.0494285 8.6943789 -1.7293116
-4.7411733 8.898922 -1.7435546
-1.3367779 3.7201192 -1.3799427
-1.9172344 4.6034713 -1.732868
-1.2542185 3.7324378 -1.6148282
-1.5640508 4.0137486 -1.7332766
-1.1935934 2.3578286 -0.81157815
-2.6093132 4.6175756 -1.732585
-1.2054073 2.5171664 -1.032064
-2.1504614 3.9897566 -1.7247763
-1.4436711 6.2777848 -1.7073089
-1.8354994 6.4384484 -1.7241164
-1.089206 5.2787337 -1.7099601
-1.3974357 5.3743901 -1.7182617
-0.4813849 1.2877114 -0.21890102
-2.7600865 6.6238842 -1.7335229
-1.2365061 3.6885753 -1.1256503
-2.141463 5.4773741 -1.7372528
-3.3489299 6.7766128 -1.7544847
-3.8286927 6.8485532 -1.7392859
-1.2029401 2.5253203 -0.70953888
-2.9844418 5.5814118 -1.7424027
-2.382123 10.217205 -1.708707
-3.0522213 10.550845 -1.7147224
-1.6615627 7.9416976 -1.7199318
-2.1329677 8.0401497 -1.7180756
-3.9033749 10.944909 -1.7231324
-4.6924591 11.285095 -1.7132351
-1.2319764 3.6598356 -0.68144011
-3.3031714 8.4148798 -1.7219607
-2.9579761 12.889735 -1.6694574
-3.82477 13.430235 -1.6804122
-10.338435 22.529995 1.5529692
-11.203321 21.37558 1.7072356
-4.9063959 13.999766 -1.6668422
-6.0978727 14.812046 -1.6739868
-3.3185291 10.057153 -1.7029884
-4.0435567 10.488628 -1.7130204
-7.4549456 15.491378 -1.6664417
-9.2067661 16.703495 -1.6915885
-4.8902717 10.694127 -1.7093451
-5.7721624 11.041086 -1.7060519
-6.3945994 28.058769 -0.85174805
-7.566277 26.399263 -0.51774281
-4.2474303 20.516745 -1.6679102
-6.0455589 22.916977 -1.6841289
-8.7016926 24.77372 -0.2675311
-9.7089911 23.50355 -0.026567847
-7.4999008 22.87406 -1.5353856
-9.0267553 23.237873 -1.3589491
-10.698727 22.209703 0.16447397
-11.480254 20.845369 0.41232017
-10.354411 22.699646 -1.1518236
-11.266815 21.498095 -0.87744522
-6.4076824 27.919231 2.3251235
-7.5675435 26.30752 2.3928664
-5.9176931 28.616476 0.7632817
-7.165688 26.934305 0.97847056
-8.7288704 24.781456 2.5373688
-9.6679125 23.48621 2.6833191
-8.2944889 25.396955 1.1632591
-9.3267155 24.013166 1.3222334
-0.99840075 4.493217 -1.7187806
-1.2470477 4.5531173 -1.7242656
-3.9914691 8.7125053 -1.7277739
-4.6860828 8.930274 -1.7439234
-1.2466004 3.5348232 -1.2996211
-1.8868384 4.6119747 -1.7314425
-1.235759 3.7558382 -1.6222889
-1.536147 4.0166821 -1.7300336
-1.2312312 2.4732275 -0.85605252
-2.5830204 4.6388016 -1.7346072
-1.1934019 2.5330293 -1.0360351
-2.1332195 4.0178084 -1.7317305
-1.405431 6.2923617 -1.7089782
-1.7913445 6.4368844 -1.7203286
-1.0552944 5.281765 -1.7086458
-1.3612707 5.3738952 -1.7150517
-1.2246547 3.4662395 -0.84779924
-2.7154555 6.6339459 -1.7314861
-1.2208461 3.7197726 -1.133826
-2.1070051 5.4907212 -1.7372528
-3.3046 6.7940273 -1.7535051
-3.7884164 6.877574 -1.7406929
-1.184666 2.5276186 -0.70775634
-2.9475143 5.5966711 -1.7412515
-2.3165872 10.226206 -1.7076617
-2.9831643 10.560332 -1.7130514
-1.6062968 7.9252243 -1.713636
-2.0809238 8.0477295 -1.7167596
-3.834528 10.969219 -1.7231324
-4.61695 11.303385 -1.7114313
-1.2125537 3.6786697 -0.68396866
-3.2495241 8.4336433 -1.7215551
-2.87394 12.894532 -1.6674783
-3.7424469 13.461635 -1.6814901
-10.231091 22.670996 1.5575372
-11.097231 21.500507 1.7110939
-4.813848 14.017175 -1.665078
-5.9994531 14.837187 -1.6723458
-3.2558722 10.079678 -1.7033463
-3.9775751 10.513828 -1.7130204
-7.3591599 15.541512 -1.6668772
-9.1130571 16.781984 -1.6939756
-4.8245926 10.728246 -1.709993
-5.6972241 11.066603 -1.7042181
-6.2495704 28.240877 -0.85712773
-7.4348526 26.569471 -0.52112687
-4.1090961 20.496141 -1.6636163
-5.922884 23.03751 -1.6909908
-8.606863 25.005701 -0.27093458
-9.602581 23.665972 -0.027579188
-7.3821535 23.002428 -1.5416132
-8.90481 23.357519 -1.3632243
-10.594866 22.352428 0.1643301
-11.447486 21.09804 0.41410643
-10.245014 22.838999 -1.1562954
-11.169164 21.641216 -0.88111544
-6.2684355 28.122503 2.3375425
-7.4372568 26.479271 2.40324
-5.7674804 28.802135 0.76618385
-7.0340867 27.123899 0.98263359
-8.6092873 24.941301 2.5472894
-9.5597973 23.644255 2.6936324
-8.1693335 25.557117 1.1673491
-9.2091894 24.159014 1.3263113
-0.96938992 4.49578 -1.7172604
-1.2184147 4.5608625 -1.7242656
-3.9342432 8.7320375 -1.7266208
-4.62988 8.9595404 -1.7439234
-1.2619131 3.6537173 -1.3456236
-1.8528829 4.6116281 -1.7264538
-1.2902967 4.0117908 -1.7408332
-1.5095736 4.0228391 -1.7284122
-1.230235 2.5113668 -0.86856091
-2.5556505 4.6582327 -1.7359555
-1.1812446 2.5488398 -1.0400062
-1.2844095 2.4779415 -0.9953599
-1.3630712 6.2879138 -1.7050833
-1.7513766 6.4498692 -1.7208697
-1.0248833 5.3031425 -1.7139026
-1.3297895 5.3915267 -1.7182617
-1.2554108 3.6292036 -0.89260763
-2.6809986 6.6687961 -1.736578
-1.733144 5.4336882 -1.7262511
-2.067714 5.491405 -1.7329503
-3.2560282 6.802393 -1.750077
-3.7376649 6.8875957 -1.7369409
-1.180512 2.561137 -0.71666914
-1.284809 2.5085027 -0.68734312
-2.2535427 10.246332 -1.708707
-2.9056518 10.538976 -1.7060333
-1.555362 7.9294195 -1.7122867
-2.0283873 8.0530844 -1.715005
-3.7629871 10.985618 -1.7218618
-4.5473166 11.335836 -1.7120326
-2.6284976 8.2508125 -1.7156296
-3.1964693 8.4538937 -1.7215551
-2.7883012 12.891041 -1.6643683
-3.6572678 13.482973 -1.6812207
-10.121573 22.809708 1.5619963
-11.004515 21.653402 1.7169435
-4.7256794 14.047144 -1.665078
-5.9046364 14.870899 -1.671877
-3.1860023 10.079284 -1.6994095
-3.9135058 10.544151 -1.7140385
-7.2555056 15.57482 -1.6653535
-8.9519081 16.735456 -1.6822393
-4.7547059 10.752929 -1.7090209
-5.6446266 11.135643 -1.7100246
-6.0999951 28.410534 -0.86206514
-7.2999988 26.733282 -0.52435225
-3.9745803 20.492218 -1.6609328
-5.7979579 23.153538 -1.6975335
-8.4897089 25.178701 -0.27321565
-9.4826365 23.798267 -0.028296307
-7.2607036 23.122606 -1.5472614
-8.7880278 23.49337 -1.3686312
-10.490475 22.496538 0.1641828
-11.354371 21.243589 0.41483483
-10.134273 22.977867 -1.1607672
-11.056549 21.757256 -0.88344288
-6.1197462 28.291971 2.3474481
-7.3056374 26.652348 2.4137733
-0.30930716 1.4669555 0.23386313
-6.8979254 27.303213 0.98651898
-8.487402 25.098732 2.5570326
-9.4471283 23.79447 2.7031667
-8.04249 25.716713 1.1714391
-9.0958109 24.319294 1.3310833
-0.94112253 4.5017824 -1.7172604
-1.1911663 4.5738082 -1.7265015
-3.8737695 8.744009 -1.7239301
-4.574389 8.9902048 -1.7442923
-1.2389309 3.6615739 -1.3456236
-1.8287342 4.6353216 -1.7314425
-1.2591718 4.0006847 -1.7317142
-1.4804155 4.0219731 -1.7235477
-1.2088404 2.5071695 -0.86369658
-2.5236208 4.6692419 -1.7339332
-1.8170754 4.022069 -1.734148
-1.2175817 2.3878515 -0.94899857
-1.3231483 6.2944732 -1.7045269
-1.7103158 6.4588866 -1.7203286
-0.99120396 5.3076181 -1.7132454
-1.2958868 5.3997755 -1.7182617
-1.2337964 3.6406825 -0.89366192
-2.6340275 6.672935 -1.7330139
-1.6956248 5.4335814 -1.7224777
-2.0351715 5.5096359 -1.7347943
-3.2124026 6.820961 -1.7495873
-3.6970811 6.9160795 -1.7383479
-2.4898801 5.5655189 -1.7362862
-1.2619967 2.5029087 -0.68273842
-2.1874933 10.252582 -1.7073133
-2.8440249 10.574149 -1.7090411
-1.5047951 7.9352045 -1.7113874
-1.9782182 8.067564 -1.7154437
-3.6920156 11.003425 -1.7209089
-4.4738154 11.35867 -1.7111305
-2.5742991 8.2596912 -1.7139437
-3.142602 8.4719763 -1.7211496
-2.7044308 12.894736 -1.6623892
-3.5689065 13.492283 -1.6793344
-10.013105 22.953428 1.5667818
-10.89062 21.766722 1.720055
-4.6360898 14.072788 -1.6645741
-5.8089099 14.902159 -1.6711737
-3.1249149 10.106627 -1.700841
-3.8410707 10.551879 -1.7109846
-7.1566768 15.618292 -1.6651357
-8.8019381 16.706921 -1.6726912
-4.6893978 10.788027 -1.709993
-5.5568228 11.135556 -1.7039127
-5.9529963 28.600952 -0.86781329
-7.166995 26.909962 -0.52794778
-3.8337138 20.45216 -1.6550287
-5.6708598 23.265032 -1.703757
-8.3713474 25.353113 -0.27553296
-9.3701744 23.952328 -0.029234096
-7.1281152 23.209738 -1.5504476
-8.6574774 23.594954 -1.3717748
-10.384689 22.640217 0.1640355
-11.24774 21.365803 0.41533774
-10.024566 23.121746 -1.1655663
-10.954563 21.895947 -0.88693404
-5.9732509 28.480202 2.3588324
-7.1731687 26.828655 2.4246261
-5.5057993 29.412937 0.77668524
-6.7583504 27.476059 0.99023795
-8.3638773 25.255611 2.566776
-9.3307743 23.938637 2.7121177
-7.9151282 25.879539 1.1756725
-8.980093 24.477226 1.3357685
-0.91317517 4.5094218 -1.7180206
-1.1614718 4.5776091 -1.7250108
-3.8210883 8.7735796 -1.7250831
-4.5125022 9.0082369 -1.7420793
-1.2193425 3.6799135 -1.3500046
-1.802309 4.6536765 -1.7342932
-1.2361087 4.0154891 -1.7350303
-1.3011094 3.6125145 -1.5257273
-1.1985793 2.526628 -0.86856091
-2.4915543 4.6800332 -1.7319109
-1.7836797 4.0149069 -1.7254117
-1.236298 2.4610758 -0.97990608
-1.2835724 6.3026628 -1.7045269
-1.6701878 6.4713678 -1.7208697
-0.95718312 5.3100209 -1.7119313
-1.2614943 5.4059687 -1.7176198
-1.2156595 3.6630442 -0.89787918
-2.5906372 6.6857514 -1.7319953
-1.6614507 5.444128 -1.7224777
-1.324681 3.6821918 -1.1017045
-3.1702907 6.8427725 -1.750077
-3.6426151 6.9185643 -1.7327199
-2.4533384 5.5775504 -1.7350978
-1.243643 2.5056658 -0.68101168
-2.1206667 10.254547 -1.7052227
-2.7734914 10.576561 -1.7063674
-1.4562862 7.9521756 -1.7131863
-1.9247365 8.0684538 -1.7128118
-3.6258667 11.035792 -1.7224972
-4.4016418 11.384715 -1.71083
-2.5229151 8.2775755 -1.7143652
-1.3110545 3.6471157 -0.6524508
-2.62024 12.895944 -1.6601273
-3.4865594 13.52403 -1.6806817
-9.904026 23.098518 1.571676
-10.794308 21.917046 1.7257802
-4.5439491 14.090303 -1.6630621
-5.7080407 14.91982 -1.6688294
-3.0624857 10.129832 -1.7015567
-3.7780337 10.585075 -1.7126811
-7.0567808 15.65932 -1.6647005
-8.7023134 16.772486 -1.6738847
-4.6207557 10.815459 -1.7096691
-5.496377 11.189742 -1.7072742
-5.8101482 28.821991 -0.87474054
-7.0366082 27.103434 -0.5320192
-3.6988015 20.440552 -1.6518081
-5.5444469 23.383593 -1.710619
-8.2480717 25.517504 -0.27766925
-0.49792233 1.3651949 0.1938843
-7.0038729 23.326685 -1.555951
-8.5341406 23.718346 -1.3764274
-10.275061 22.777971 0.1638985
-11.146487 21.499928 0.41596207
-9.9150238 23.268816 -1.1705834
-10.849511 22.030622 -0.89024615
-5.8246431 28.667698 2.3702164
-7.039289 27.006271 2.435638
-5.3481417 29.59849 0.77962554
-6.6178212 27.652105 0.99406791
-8.2399521 25.415712 2.5768735
-9.2165594 24.091566 2.7220416
-7.7837658 26.034107 1.179619
-8.8620796 24.632772 1.3403668
-0.88413447 4.511435 -1.7165003
-1.1340539 4.5902143 -1.7272466
-3.7658904 8.7974138 -1.7250831
-4.4523211 9.0293684 -1.7406042
-1.4600743 4.5199289 -1.6924665
-1.7683246 4.6527047 -1.7293044
-1.2113695 4.0249214 -1.7358593
-1.2957578 3.6687729 -1.5484281
-1.1850135 2.5392287 -0.87064564
-2.4621015 4.6955948 -1.7319109
-1.7627681 4.0361524 -1.7301769
-1.2233109 2.4737318 -0.98222423
-1.2443129 6.3124881 -1.7050833
-1.6223464 6.453752 -1.7127527
-0.92411709 5.3177924 -1.7125883
-1.2262224 5.4082518 -1.7156937
-1.1990432 3.6908362 -0.90367788
-2.5520513 6.7109232 -1.7345412
-1.6266793 5.4526372 -1.7218488
-1.2950714 3.6725359 -1.0955579
-3.1264384 6.8607888 -1.7495873
-3.6008768 6.9447594 -1.7336578
-2.4159966 5.5875859 -1.7333152
-1.225306 2.5082905 -0.67928487
-2.0519965 10.246414 -1.7013899
-2.7050157 10.58614 -1.7050307
-1.4052973 7.9554062 -1.7118371
-1.8744529 8.0822868 -1.7132504
-3.551657 11.043304 -1.7199559
-4.3293214 11.410296 -1.7105292
-2.4703066 8.2913876 -1.7139437
-1.2801552 3.6331682 -0.64758384
-2.5609629 12.91592 -1.6612582
-3.4149594 13.509583 -1.6763701
-9.8292255 23.225891 1.5764614
-10.715414 22.0179 1.7292651
-4.471529 14.092638 -1.6605419
-5.6432991 14.961412 -1.6707048
-3.014158 10.142262 -1.7011988
-3.7300835 10.608337 -1.7136991
-6.9764628 15.67786 -1.6629591
-8.5812874 16.731911 -1.6647345
-4.5704985 10.838935 -1.709993
-5.4340496 11.19598 -1.7039127
-5.7030578 28.996155 -0.88026756
-6.9394984 27.256386 -0.53529745
-3.5938585 20.408699 -1.6473355
-5.4545703 23.49683 -1.7178001
-8.1639805 25.670464 -0.27984172
-9.2290726 24.377354 -0.032415181
-6.9146829 23.430241 -1.5613096
-8.445014 23.822241 -1.3807026
-10.202515 22.904732 0.1637512
-11.077951 21.616257 0.41658643
-9.8400106 23.398157 -1.1754915
-10.777112 22.146151 -0.89346886
-5.725781 28.878767 2.3841138
-6.9461365 27.172388 2.4466503
-5.2230706 29.706093 0.78122938
-6.5208664 27.825048 0.99811989
-8.1575098 25.571968 2.587857
-9.1374369 24.225956 2.731576
-7.6980624 26.197098 1.1843547
-8.7800388 24.770279 1.3447918
-0.8642121 4.5228276 -1.719541
-1.1128564 4.5973091 -1.7279919
-3.7259088 8.8186846 -1.7258521
-4.4140472 9.0590744 -1.7424481
-1.4498429 4.5623097 -1.7070704
-1.7497028 4.6697192 -1.732868
-1.1903663 4.0235915 -1.7325433
-1.2790663 3.6765614 -1.5492389
-1.1868804 2.5755713 -0.88315415
-1.2739288 2.4844108 -0.83334929
-1.7408607 4.0376554 -1.727
-1.2116398 2.4794693 -0.98222423
-1.2138411 6.3145061 -1.7039706
-1.5933183 6.4669285 -1.714376
-0.89843535 5.3183603 -1.7112743
-1.1994659 5.4084282 -1.7137676
-2.061568 6.5140338 -1.7102281
-2.5169694 6.7138319 -1.7319953
-1.6041206 5.4711876 -1.7256222
-1.2752042 3.6714234 -1.0930995
-3.0972307 6.8825297 -1.7515463
-3.5663242 6.9581971 -1.7327199
-2.3918643 5.604188 -1.7350978
-1.2143204 2.5157535 -0.67986041
-2.0036871 10.255971 -1.7013899
-2.6584842 10.612152 -1.70737
-1.3684391 7.9657855 -1.7127366
-1.8367817 8.0929308 -1.7136891
-3.4989839 11.058037 -1.7196383
-4.2685351 11.412067 -1.7075224
-2.4301183 8.299181 -1.7131009
-1.26171 3.6354685 -0.64677262
-2.4768062 12.916195 -1.6589963
-3.329531 13.528851 -1.6761007
-9.7167501 23.368362 1.581247
-10.617472 22.169367 1.7351147
-4.3823085 14.11856 -1.6602898
-5.5436425 14.981682 -1.6688294
-2.9487402 10.155329 -1.7001252
-3.6607699 10.624116 -1.7123418
-6.8706703 15.704982 -1.6610001
-8.4705896 16.774847 -1.6635411
-4.497045 10.854664 -1.7077249
-5.3738627 11.251285 -1.70758
-5.5493717 29.182629 -0.88594216
-6.8014226 27.433315 -0.53894585
-3.4586103 20.389627 -1.6435784
-5.3244534 23.60841 -1.7241832
-8.032136 25.816751 -0.28165209
-9.0966673 24.491089 -0.032966837
-6.7893496 23.549915 -1.5671027
-8.318161 23.9408 -1.3851036
-10.092814 23.047199 0.1636039
-10.981635 21.763954 0.41734946
-9.7277908 23.544462 -1.1805086
-10.674074 22.289076 -0.89722848
-5.5726299 29.063072 2.39535
-6.811523 27.360556 2.4586198
-5.0496039 29.817196 0.78275687
-6.3762121 27.997999 1.0018944
-8.0286255 25.725441 2.5974233
-9.0210543 24.37993 2.7416945
-7.5712304 26.377546 1.1893057
-8.6564484 24.91741 1.3490431
-0.83545125 4.5263472 -1.7187806
-1.083513 4.6024065 -1.7272466
-3.6666877 8.8328466 -1.7239301
-4.351059 9.0742378 -1.7398663
-1.4282082 4.5944819 -1.7165629
-1.7183659 4.6753693 -1.7307298
-1.1650616 4.0309911 -1.7325433
-1.2577448 3.6897056 -1.551671
-2.0952635 4.673768 -1.7302526
-1.2600219 2.4957123 -0.83469748
-1.7161629 4.0502086 -1.7277944
-1.1960366 2.4870336 -0.98222423
-1.1744845 6.3238988 -1.7045269
-1.5544782 6.4842949 -1.7165406
-0.86500084 5.3239002 -1.7112743
-1.1658667 5.4177079 -1.7144096
-2.0172164 6.5157881 -1.7070651
-2.4754097 6.731328 -1.7325046
-1.5650828 5.4647112 -1.7199621
-1.2527355 3.6811607 -1.093714
-3.0500326 6.8929753 -1.7490976
-3.5322323 6.9995289 -1.7378789
-2.3522182 5.608521 -1.7315327
-1.2010027 2.5285013 -0.68158722
-1.9384856 10.264486 -1.7006931
-2.5926962 10.632476 -1.7080384
-1.3168025 7.9646077 -1.7104881
-1.7829144 8.0909824 -1.7106186
-3.4265368 11.070366 -1.7180505
-4.1974316 11.440517 -1.7078233
-2.3736687 8.2992353 -1.7097297
-1.2388426 3.6433246 -0.64677262
-2.3945374 12.925658 -1.6581482
-3.2407455 13.534091 -1.6739451
-9.5998707 23.502932 1.5855973
-10.506971 22.297001 1.7393465
-4.2895079 14.132518 -1.6585257
-5.4432812 14.999423 -1.6667197
-2.8832822 10.167972 -1.6990514
-3.5914094 10.639441 -1.7109846
-6.769516 15.742356 -1.6603471
-8.3650293 16.827736 -1.6635411
-4.4280181 10.880874 -1.7074009
-5.2853351 11.247295 -1.7011621
-5.3989716 29.397799 -0.89272195
-6.6661172 27.629015 -0.54312307
-3.3263006 20.385391 -1.6412524
-5.1987309 23.744589 -1.7326409
-7.8964658 25.954735 -0.28331763
-8.9831152 24.658587 -0.034051716
-6.6622577 23.667015 -1.5727509
-8.1927452 24.066256 -1.3900077
-9.9801579 23.185507 0.16346346
-10.863402 21.870113 0.41771367
-9.6163788 23.695824 -1.185853
-10.570529 22.433378 -0.90107775
-5.4210172 29.266199 2.4080648
-6.6720037 27.536474 2.4696321
-4.8887134 30.012169 0.78592634
-6.2352901 28.195589 1.0063903
-7.9033594 25.895449 2.6085837
-8.9037895 24.535261 2.7520072
-7.4424458 26.557425 1.1942565
-8.5378246 25.08287 1.3541621
-0.80793893 4.5369768 -1.7210613
-1.0482175 4.5820193 -1.7160671
-3.612592 8.8593483 -1.7246988
-4.2939615 9.1013956 -1.7398663
-1.3945271 4.5873051 -1.7099911
-1.312282 3.6578307 -1.3130978
-1.1392293 4.0364771 -1.7317142
-1.2410345 3.7165678 -1.5605891
-2.070344 4.6971593 -1.7344221
-1.2400485 2.4951878 -0.83132702
-1.691378 4.0626097 -1.7285886
-1.1811923 2.4961586 -0.98299682
-1.1343986 6.3292613 -1.7039706
-1.5150412 6.4995532 -1.7181641
-0.83153498 5.3292303 -1.7112743
-1.1310142 5.4212213 -1.7131256
-1.9795511 6.5394254 -1.7102281
-1.2719834 3.5633395 -0.84041941
-1.5302154 5.4726052 -1.7193332
-1.2308106 3.6925619 -1.0949434
-3.0089674 6.9173446 -1.7505668
-3.4794781 7.0042 -1.7331889
-2.3176546 5.6249576 -1.732127
-1.1867472 2.5394526 -0.68273842
-1.8701243 10.255141 -1.6968603
-2.5194077 10.621709 -1.7033597
-1.2676351 7.9784999 -1.7118371
-1.7312175 8.0982113 -1.7097414
-3.3557804 11.087893 -1.7174151
-4.1221027 11.457367 -1.7063198
-2.3214796 8.3139849 -1.7097297
-1.222873 3.6714292 -0.65123403
-2.3105183 12.92485 -1.6558863
-3.1583617 13.565762 -1.6755618
-9.4876032 23.651787 1.5908177
-10.404531 22.444029 1.7449471
-4.1972599 14.147772 -1.6570138
-5.3482599 15.031457 -1.6664851
-2.8177764 10.180194 -1.6979778
-3.5232425 10.658057 -1.7103059
-6.6627588 15.766255 -1.6581707
-8.2415895 16.844234 -1.6595626
-4.3595643 10.908482 -1.7074009
-5.2303901 11.314336 -1.7069684
-5.24156 29.586637 -0.89854378
-6.5208106 27.791006 -0.54640132
-3.1898885 20.352741 -1.6364219
-5.0652533 23.850872 -1.7387049
-7.7457304 26.046017 -0.28411424
-8.8637562 24.814322 -0.035026267
-6.5355291 23.789217 -1.5788336
-8.0717678 24.208118 -1.3960434
-9.8708134 23.334368 0.16330247
-10.761868 22.011564 0.41842473
-9.2733574 23.267679 -1.1571679
-10.459683 22.564579 -0.90430033
-5.2667084 29.466595 2.4206316
-6.5314474 27.715595 2.4809635
-4.726171 30.210241 0.78917217
-6.0883322 28.374928 1.0103868
-7.7739916 26.057257 2.6190357
-8.7842474 24.688202 2.7621257
-7.3074822 26.721296 1.1986336
-8.4142799 25.238344 1.3588473
-0.77850842 4.5364876 -1.7187806
-1.0247697 4.6120391 -1.725756
-3.5568554 8.8818712 -1.7246988
-4.2366905 9.1281958 -1.7398663
-1.3698417 4.6102781 -1.7158327
-1.2924318 3.6747968 -1.3166611
-1.1114823 4.0347667 -1.7275695
-1.3237406 4.0416098 -1.7089543
-2.0385792 4.7049012 -1.7323374
-1.2260325 2.5062976 -0.83267528
-1.6651335 4.0714531 -1.7277944
-1.1781933 2.5301704 -0.9953599
-1.0946079 6.3362632 -1.7039706
-1.4711449 6.4958105 -1.714376
-0.79911566 5.3418274 -1.7139026
-1.0980809 5.433785 -1.7150517
-1.9341007 6.5369167 -1.7060107
-1.2821336 3.6623182 -0.86587852
-1.4987477 5.4931154 -1.7231066
-1.8276039 5.5578871 -1.7274184
-2.9669566 6.9396844 -1.7515463
-3.4405599 7.036387 -1.7360029
-2.2865188 5.6500487 -1.7356919
-2.673233 5.7369747 -1.7424027
-1.8036342 10.255046 -1.6947697
-2.450382 10.627728 -1.7016888
-1.2171919 7.9843798 -1.7113874
-1.6786925 8.1012917 -1.7079867
-3.283823 11.101179 -1.7161446
-4.0500321 11.483041 -1.7063198
-2.2661452 8.3170795 -1.707201
-0.40718758 1.302893 -0.13249943
-2.2305925 12.946921 -1.6570172
-3.0730624 13.585339 -1.6755618
-9.3782253 23.811316 1.5966909
-10.293186 22.574312 1.7494277
-4.1082835 14.173864 -1.6570138
-5.2504234 15.055393 -1.6653132
-2.7517235 10.190094 -1.6965462
-3.4537616 10.67249 -1.7089487
-6.5628042 15.805969 -1.6579529
-8.1416512 16.908228 -1.660955
-4.2895036 10.93198 -1.7067528
-5.150979 11.329002 -1.7039127
-5.0863371 29.800264 -0.90532368
-6.3773022 27.967852 -0.55010259
-3.0601823 20.360561 -1.6353483
-4.9314513 23.96032 -1.745088
-7.6152911 26.209417 -0.28628665
-8.6705532 24.763861 -0.033996552
-6.4028993 23.893412 -1.5836129
-7.9493303 24.349407 -1.402079
-9.7599916 23.482765 0.16314146
-10.653768 22.14179 0.41903168
-9.3867998 23.991539 -1.1962144
-10.354252 22.709803 -0.90823913
-5.1080728 29.654409 2.4323113
-6.3862209 27.882372 2.4913371
-4.565166 30.433161 0.79291445
-5.9418192 28.565266 1.0147164
-7.646235 26.22994 2.6305506
-8.6637897 24.842487 2.7724388
-7.1764002 26.905764 1.2037998
-8.2860079 25.38376 1.3630986
-0.74998927 4.5412898 -1.7187806
-0.99496877 4.6147628 -1.7242656
-3.5009785 8.9040442 -1.7246988
-4.1800737 9.1564217 -1.7402353
-1.3362625 4.6026759 -1.7092609
-1.2711788 3.6881328 -1.3187991
-1.0865705 4.0434318 -1.7283983
-1.3011642 4.0585351 -1.7130079
-2.0104291 4.7210755 -1.7337272
-1.2060977 2.5055065 -0.82930475
-1.6388447 4.0801282 -1.727
-1.9045144 4.1189394 -1.7270943
-1.0544668 6.3411202 -1.7034141
-1.4315637 6.5105624 -1.7159994
-0.76424229 5.3373871 -1.7106171
-1.0620564 5.4312911 -1.7118417
-1.8929896 6.5489402 -1.7060107
-1.2597368 3.672127 -0.86638767
-1.4627641 5.496913 -1.7212199
-1.7938286 5.5728784 -1.7286478
-2.91957 6.9492383 -1.7490976
-3.3937337 7.052618 -1.7345958
-2.2446942 5.6483049 -1.7303444
-2.632302 5.7432303 -1.7389491
-1.737219 10.254519 -1.6926792
-2.3822508 10.637146 -1.7006863
-1.1653482 7.9802947 -1.7086891
-1.6250277 8.0982952 -1.7049162
-3.2140071 11.121593 -1.7161446
-3.9745524 11.498923 -1.7048165
-2.2138424 8.3311548 -1.707201
-2.7684157 8.5603666 -1.7130378
-2.1475995 12.950911 -1.6556035
-2.9794962 13.567616 -1.670442
-9.2636204 23.961077 1.6020201
-10.19453 22.735031 1.7560241
-4.0180702 14.195578 -1.6565098
-5.1537862 15.082451 -1.6646099
-2.6876421 10.207183 -1.6965462
-3.389632 10.703368 -1.7106452
-6.4626126 15.84505 -1.6577352
-8.0258522 16.939281 -1.658767
-4.2207308 10.958716 -1.7067528
-5.0902305 11.384579 -1.7078854
-4.9244471 29.987465 -0.91114551
-6.2352982 28.159595 -0.55422688
-2.92713 20.343893 -1.632128
-4.8043065 24.108116 -1.7546629
-7.4863658 26.383747 -0.28867638
-8.5909367 25.039099 -0.036147922
-6.2777534 24.029699 -1.5908543
-7.8236051 24.484406 -1.4077375
-9.6439219 23.621426 0.1629976
-10.558179 22.300436 0.41991618
-9.2680025 24.13397 -1.2011225
-10.246588 22.852774 -0.91208839
-4.9524746 29.872875 2.4463568
-6.2430668 28.065931 2.5031474
-4.3970251 30.623571 0.79604578
-5.795135 28.764675 1.0193235
-7.5166125 26.402037 2.642065
-8.5430307 24.999998 2.7831409
-7.0442872 27.093502 1.2091094
-8.1653881 25.557098 1.3686515
-0.71976244 4.5349407 -1.7142195
-0.96595341 4.620924 -1.7242656
-3.4421566 8.9185362 -1.7231613
-4.1192198 9.1753407 -1.73876
-1.3098069 4.6199517 -1.7129118
-1.2516378 3.706646 -1.3230753
-1.0629444 4.0572324 -1.7317142
-1.2845633 4.0944886 -1.7259798
-1.9792955 4.7301474 -1.7323374
-1.1927971 2.5181177 -0.83132702
-1.6145023 4.0937681 -1.7285886
-1.8739566 4.1207757 -1.7224581
-1.0140117 6.3438239 -1.7023013
-1.3902189 6.5175481 -1.7154583
-0.72822142 5.3233557 -1.7040462
-1.0275487 5.435998 -1.7111996
-1.8502525 6.5551291 -1.7044293
-1.238524 3.6854572 -0.86791521
-1.4263234 5.4986358 -1.7187042
-1.7610967 5.5912905 -1.7311064
-2.8758485 6.9674459 -1.7490976
-3.3476779 7.0702934 -1.7336578
-2.207787 5.6587329 -1.7291559
-2.5858381 5.7369981 -1.7314664
-1.6711936 10.255512 -1.690937
-2.3102863 10.628793 -1.696676
-1.1136035 7.9758735 -1.7059909
-1.5763794 8.119832 -1.7075481
-3.1429996 11.137765 -1.7155094
-3.9047756 11.531156 -1.706019
-2.1609676 8.3430061 -1.7067797
-2.7217298 8.5999775 -1.7179048
-2.0849898 12.951111 -1.6541898
-2.9138472 13.573759 -1.6693641
-9.1818151 24.086601 1.6068054
-10.110767 22.835728 1.7596334
-3.9500718 14.21053 -1.6560055
-5.0794697 15.097162 -1.6634377
-2.6360984 10.206388 -1.6940409
-3.3332484 10.700419 -1.7072521
-6.3937864 15.890096 -1.6594765
-7.9552426 16.996729 -1.660955
-4.1697373 10.980332 -1.7070769
-5.0164733 11.363278 -1.7002455
-4.8137379 30.203789 -0.91836756
-6.1326852 28.327375 -0.55798107
-2.8282351 20.335752 -1.6301601
-4.7078547 24.218534 -1.7618439
-7.4229336 26.638388 -0.29280406
-8.5004492 25.160753 -0.036938608
-6.1871243 24.147926 -1.5975163
-7.7327552 24.599049 -1.4128931
-9.5734911 23.768688 0.16280919
-10.48354 22.415129 0.42054051
-9.192955 24.280136 -1.2071213
-10.174451 22.981153 -0.91602719
-4.8396988 30.071165 2.4595149
-6.1417952 28.237221 2.5147979
-4.2802553 30.844019 0.79990262
-5.687017 28.930918 1.0232644
-7.4263244 26.559988 2.653403
-8.456954 25.134274 2.79287
-6.9460506 27.242632 1.2134147
-8.0809174 25.709631 1.3738573
-0.69838345 4.5382824 -1.7142195
-0.94302279 4.6199746 -1.7220296
-3.3993955 8.9328213 -1.7227768
-4.0687242 9.1784964 -1.7354405
-1.2855722 4.6170902 -1.7092609
-1.2407701 3.7319658 -1.3309147
-1.0429286 4.0586662 -1.7300564
-1.2630548 4.0935216 -1.7227368
-1.9562753 4.7376847 -1.7316425
-1.1825449 2.527107 -0.83267528
-1.5945371 4.0996161 -1.7277944
-1.8552821 4.1312399 -1.7232308
-0.98381847 6.346633 -1.7017449
-1.3594892 6.5240264 -1.7154583
-0.70336497 5.3286028 -1.7047035
-1.0036787 5.4500856 -1.7144096
-1.8198489 6.5656366 -1.7049565
-1.2168044 3.6784284 -0.86435097
-1.400395 5.5052962 -1.7187042
-1.7381555 5.6104207 -1.7347943
-2.840081 6.9737267 -1.7471386
-3.3134916 7.0842323 -1.7331889
-2.1844862 5.6780005 -1.732127
-2.5682058 5.7700801 -1.7383735
-1.6204238 10.247704 -1.6881496
-2.2618294 10.647273 -1.6980127
-1.0777831 7.9945574 -1.7091389
-1.5362524 8.11759 -1.7053548
-3.0920467 11.158166 -1.7164621
-3.8466156 11.538183 -1.7042152
-2.1197243 8.3455105 -1.7050939
-2.6723592 8.5846844 -1.7118212
-2.0020869 12.954167 -1.6527762
-2.8260643 13.580162 -1.6677473
-9.0686779 24.246733 1.6127874
-10.007025 22.990273 1.7658564
-3.8586493 14.227404 -1.6549976
-4.9851422 15.130665 -1.6636722
-2.5704963 10.217022 -1.6929673
-3.2636395 10.713612 -1.7058947
-6.2967377 15.937354 -1.6603471
-7.8583164 17.068052 -1.663342
-4.0931339 10.985952 -1.7035125
-4.960794 11.430799 -1.7063574
-4.6473169 30.38756 -0.92411572
-5.9863539 28.515984 -0.56205249
-2.6921108 20.289921 -1.6244348
-4.5685587 24.3162 -1.7674291
-7.2925467 26.821539 -0.29537481
-8.3743353 25.310465 -0.037876397
-6.0588522 24.281179 -1.6046127
-7.6010056 24.721531 -1.417797
-9.4547825 23.906511 0.16266532
-10.382717 22.56772 0.42137295
-9.0790644 24.442287 -1.2132291
-10.062634 23.119703 -0.9196974
-4.6782336 30.280375 2.4729688
-5.9977374 28.433226 2.5277252
-0.22124577 1.4827944 0.23386313
-5.5463901 29.182091 1.0293701
-7.2932739 26.731073 2.6649175
-8.3369856 25.3022 2.8047397
-6.8083439 27.421551 1.2184374
-7.9551601 25.876362 1.3791498
-0.67063522 4.5480752 -1.7165003
-0.91508734 4.6312652 -1.7242656
-3.3391168 8.9429588 -1.7204705
-4.0078173 9.1966782 -1.7339652
-1.2584524 4.6322742 -1.7121817
-1.5395172 4.7077894 -1.7200396
-1.0165465 4.0616016 -1.7283983
-1.2400047 4.1101122 -1.7267904
-1.925079 4.7463994 -1.7302526
-1.1867255 2.5770633 -0.84952742
-1.568749 4.1095533 -1.7277944
-1.824006 4.1310315 -1.717822
-0.94310087 6.3469844 -1.7000757
-1.3145905 6.5135808 -1.710047
-0.67100435 5.3422933 -1.7079887
-0.96873713 5.4525571 -1.7131256
-1.7770733 6.5713482 -1.703375
-2.2221425 6.7906427 -1.7253759
-1.3671231 5.5195212 -1.7205909
-1.6995131 5.6103163 -1.7311064
-2.7969251 6.9932361 -1.7476285
-3.2656438 7.097856 -1.7313128
-2.1441011 5.6790872 -1.7279675
-2.525703 5.772089 -1.7337687
-1.5554271 10.253787 -1.6874528
-2.1928794 10.651621 -1.6963416
-1.0253563 7.9837689 -1.7050915
-1.4830801 8.115571 -1.7027229
-3.0208592 11.173556 -1.715827
-3.7715778 11.55461 -1.7030126
-2.0672495 8.3586645 -1.7050939
-2.6212497 8.6106663 -1.7138492
-1.919222 12.956697 -1.6513627
-2.7339623 13.564639 -1.6631664
-8.9531908 24.404512 1.6186603
-9.8891344 23.115068 1.7700882
-3.7747214 14.272477 -1.6577697
-4.8881359 15.15602 -1.6629689
-2.504859 10.227235 -1.6918935
-3.1951253 10.730131 -1.7052162
-6.2000551 15.985876 -1.6614355
-7.7451544 17.10441 -1.6619496
-4.0267186 11.018875 -1.7048087
-4.8725095 11.423599 -1.6999397
-4.4868259 30.625803 -0.93192726
-5.8414793 28.721493 -0.56659973
-2.5608647 20.276787 -1.6217512
-4.4321456 24.434643 -1.7747697
-7.1565604 26.990566 -0.29769212
-8.2553158 25.486212 -0.039071605
-5.9230423 24.388571 -1.6098266
-7.473197 24.860529 -1.4238328
-9.3404837 24.058702 0.16249406
-10.26881 22.694435 0.42196262
-8.6976118 23.871914 -1.1768003
-9.9534044 23.266935 -0.92381513
-4.514605 30.490709 2.4865704
-5.8514438 28.628534 2.5406525
-3.9645903 31.472759 0.81101489
-5.3883085 29.353987 1.0332556
-7.1583519 26.901537 2.6764324
-8.2152262 25.469604 2.8166094
-6.6695833 27.603703 1.2236036
-7.8206863 26.019573 1.3834012
-0.64130127 4.5466995 -1.7142195
-0.88417798 4.6278176 -1.720539
-3.2828598 8.9637623 -1.7204705
-3.9554031 9.234313 -1.736547
-1.2279207 4.6346831 -1.7099911
-1.5156963 4.735137 -1.7271664
-0.99184597 4.0714502 -1.7300564
-1.2120446 4.1108203 -1.7235477
-1.8911076 4.7479267 -1.726083
-2.2095165 4.8237472 -1.733259
-1.5422627 4.1176062 -1.727
-1.8076886 4.1643543 -1.7278669
-0.90372765 6.3565907 -1.7011884
-1.276273 6.5349298 -1.7138349
-0.63828242 5.3539109 -1.7106171
-0.93380135 5.4548059 -1.7118417
-1.7357485 6.5823841 -1.703375
-2.1848016 6.8210297 -1.7299588
-1.3280513 5.5095253 -1.7143019
-1.6620349 5.6135941 -1.7286478
-2.7536318 7.0124793 -1.7481182
-3.2169445 7.1093922 -1.7289678
-2.1116536 5.7014151 -1.7309386
-2.4924419 5.7948709 -1.7360712
-1.4906907 10.261408 -1.6871043
-2.1223981 10.647793 -1.693334
-0.97448242 7.9842486 -1.7037425
-1.4334379 8.132412 -1.7044775
-2.9436061 11.165569 -1.7113802
-3.7049596 11.596901 -1.706019
-2.0155923 8.3752928 -1.7059367
-2.568223 8.6307163 -1.7146603
-1.8364047 12.958695 -1.649949
-2.646764 13.571826 -1.6618191
-8.8259687 24.533598 1.6229019
-9.7832518 23.27055 1.7764356
-3.6854615 14.297836 -1.6580217
-4.7946138 15.192115 -1.6636722
-2.4391954 10.237024 -1.6908199
-3.1259773 10.744321 -1.7041981
-6.1030116 16.033812 -1.6625239
-7.6399665 17.158188 -1.6625464
-3.9554203 11.03838 -1.7038366
-4.8152246 11.488593 -1.7057462
-4.3188391 30.829573 -0.93848616
-5.6927075 28.918457 -0.57093555
-2.4247284 20.219286 -1.6151314
-4.2923503 24.540546 -1.7811528
-7.0257187 27.186047 -0.30051631
-8.1295691 25.646214 -0.040119708
-5.7906895 24.514627 -1.6164886
-7.342813 24.995064 -1.4296169
-0.52937192 1.3203404 0.20426059
-10.165943 22.848 0.42281237
-8.8428802 24.755747 -1.2248994
-9.8434963 23.415548 -0.92802238
-4.3476839 30.694256 2.4997287
-5.7009883 28.813343 2.5527818
-0.20259517 1.4854575 0.23386313
-5.2324896 29.548666 1.0378071
-7.0275569 27.094501 2.690073
-8.0898895 25.630783 2.8278952
-6.5292568 27.787132 1.2288417
-7.6835985 26.158278 1.3874789
-0.61319369 4.5543094 -1.7157401
-0.85438907 4.6296353 -1.7190483
-3.225157 8.9805145 -1.7197016
-3.8919334 9.246316 -1.7339652
-1.1996871 4.6459179 -1.7114515
-1.4898891 4.7570295 -1.7321551
-0.96747059 4.0829234 -1.7325433
-1.1898082 4.1306314 -1.7292228
-1.8652825 4.770216 -1.7302526
-2.1736917 4.8255434 -1.7285404
-1.515115 4.1237621 -1.7254117
-1.7778193 4.1671677 -1.7240036
-0.86201489 6.3488111 -1.6972936
-1.2351874 6.5428195 -1.7138349
-0.60321063 5.3446689 -1.7060175
-0.89982587 5.4624324 -1.7124836
-1.6924634 6.5856781 -1.7012663
-2.1389747 6.8254046 -1.7274127
-1.2955315 5.5270133 -1.7174464
-1.6272676 5.625752 -1.7292625
-2.7081342 7.0260186 -1.7471386
-3.1785817 7.1436543 -1.7327199
-2.0751443 5.7127728 -1.7303444
-2.4589942 5.8174615 -1.7383735
-1.4261864 10.270573 -1.6871043
-2.0550759 10.658982 -1.6929997
-0.92581999 8.0037699 -1.7068905
-1.3836428 8.1489496 -1.7062323
-2.8719311 11.178104 -1.7104273
-3.6296453 11.612408 -1.7048165
-1.9607304 8.3782682 -1.7038295
-2.5078692 8.6260128 -1.7101988
-1.7541609 12.964091 -1.6491008
-2.5621779 13.592082 -1.6623579
-8.7107201 24.699726 1.6293188
-9.6712208 23.414551 1.7820363
-3.5998695 14.338037 -1.6602898
-4.6984735 15.220042 -1.6634377
-2.3717504 10.238723 -1.6883146
-3.0594926 10.76754 -1.7048769
-6.0035319 16.075569 -1.6629591
-7.5352087 17.213139 -1.663342
-3.8840351 11.057425 -1.7028645
-4.7278171 11.482102 -1.6996343
-4.1513619 31.054224 -0.94585556
-0.24068427 1.3968972 0.17106593
-2.2920814 20.184633 -1.6106586
-4.1570635 24.679071 -1.7902489
-6.8854041 27.351851 -0.30279738
-7.9991636 25.796087 -0.041075885
-5.6565385 24.638035 -1.6230057
-7.2121367 25.132774 -1.4356526
-9.1449823 24.462784 0.16196653
-10.056729 22.990175 0.42355812
-8.715457 24.891899 -1.2295893
-9.7328768 23.565538 -0.93231928
-4.1791782 30.902828 2.5133305
-5.5514517 29.01305 2.5661879
-3.5987103 31.786373 0.81613195
-5.075449 29.748446 1.0425252
-6.8921852 27.277218 2.7028279
-7.9646153 25.797089 2.8397648
-6.3864436 27.967934 1.2340078
-7.5655308 26.367329 1.394767
-0.5841158 4.5543995 -1.7142195
-0.82696021 4.6440401 -1.7227749
-3.1667266 8.9950438 -1.7185485
-3.838295 9.2814751 -1.7361782
-1.1691386 4.6479387 -1.7092609
-1.4588571 4.7627296 -1.7307298
-0.94259262 4.092474 -1.7342014
-1.1587744 4.1204557 -1.7211154
-1.8359363 4.783596 -1.7309475
-2.1440997 4.8408237 -1.7292144
-1.3563799 3.7576756 -1.5530677
-1.7516009 4.1782556 -1.7240036
-0.82330042 6.3636332 -1.7000757
-1.1940527 6.5504522 -1.7138349
-0.57038063 5.3558707 -1.7086458
-0.86701089 5.4773259 -1.7156937
-1.6510506 6.5961828 -1.7012663
-2.0971935 6.8424034 -1.728431
-1.2603651 5.5331912 -1.7168176
-1.5918875 5.6358657 -1.7292625
-2.6618953 7.0374484 -1.7456695
-3.1367736 7.1705999 -1.7345958
-1.3220022 3.6843362 -1.0571357
-2.4209089 5.8292656 -1.7372223
-1.3593423 10.261754 -1.6839684
-1.9836727 10.648433 -1.6889893
-0.87448436 7.9997396 -1.7046418
-1.3308101 8.1478577 -1.704039
-2.8011644 11.194013 -1.7101097
-3.5554457 11.631206 -1.7042152
-1.9071929 8.3866062 -1.7029867
-2.4509187 8.6321888 -1.708171
-1.6724204 12.972892 -1.6488179
-2.4706299 13.574779 -1.6577771
-8.5956821 24.871035 1.6360619
-9.5637856 23.572847 1.7886328
-3.5040972 14.337234 -1.6572657
-4.5969791 15.230257 -1.6610935
-2.3052349 10.243819 -1.6865251
-2.9907146 10.782756 -1.7041981
-5.9010444 16.10924 -1.6625239
-7.4316406 17.271107 -1.6645356
-3.8125677 11.076009 -1.7018924
-4.6660066 11.537211 -1.7039127
-3.9792249 31.262117 -0.95263535
-5.4247489 29.506741 -0.58489466
-2.1591277 20.141191 -1.6054702
-4.0131464 24.773571 -1.7958341
-6.7480235 27.536388 -0.30544055
-7.8671947 25.945332 -0.042032048
-5.5202017 24.756828 -1.6292332
-7.0773168 25.26022 -1.4410596
-9.0329828 24.63435 0.16175759
-9.9350424 23.106169 0.42406106
-8.5957174 25.053875 -1.2358062
-9.6147356 23.700253 -0.93589997
-4.0112605 31.134232 2.5287066
-5.398901 29.208084 2.5792749
-3.4149425 31.95948 0.8190341
-4.9174051 29.955309 1.0474653
-6.7528973 27.451561 2.7148745
-7.8358397 25.957117 2.8510509
-6.2437696 28.157789 1.2395328
-7.4397297 26.556686 1.4011874
-0.5550611 4.5543046 -1.7126992
-0.79679233 4.6436615 -1.720539
-3.112051 9.0203342 -1.7197016
-3.7732005 9.2890339 -1.7328587
-1.1420766 4.664248 -1.7129118
-1.4267212 4.7646523 -1.727879
-0.91415542 4.0858655 -1.7283983
-1.1368185 4.1417365 -1.7276013
-1.8038875 4.789762 -1.7288626
-2.1098404 4.8455873 -1.7258441
-1.2744387 3.5978928 -1.4760289
-1.7196147 4.1755652 -1.717822
-0.78307313 6.3667727 -1.6995192
-1.152871 6.5578251 -1.7138349
-0.53582132 5.3499475 -1.7053605
-0.8314057 5.4751801 -1.7131256
-1.6077745 6.5989223 -1.6991577
-2.0519123 6.8480434 -1.7263944
-1.2275815 5.5502787 -1.7199621
-1.5579863 5.6512542 -1.7311064
-2.6196296 7.059495 -1.7471386
-3.0862396 7.1776824 -1.7313128
-1.2963398 3.6853473 -1.054759
-2.3798497 5.8337388 -1.7337687
-1.2926655 10.252501 -1.6808326
-1.9163735 10.658748 -1.6886553
-0.82458949 8.008954 -1.7055411
-1.278972 8.1522055 -1.7031617
-2.727071 11.196036 -1.7075689
-3.483434 11.657102 -1.7048165
-1.8552922 8.4022455 -1.7038295
-2.3955748 8.6436472 -1.7073598
-1.5887499 12.965453 -1.6462734
-2.3852944 13.590034 -1.6577771
-8.4705458 25.017265 1.6413912
-9.4473429 23.712173 1.7939845
-3.4080291 14.333863 -1.6539896
-4.4961152 15.241701 -1.6589837
-2.2391694 10.250406 -1.6850934
-2.919275 10.788023 -1.7018229
-5.7983794 16.142252 -1.6620885
-7.323761 17.319288 -1.6647345
-3.7435308 11.101615 -1.7022164
-4.5794959 11.531427 -1.6981063
-3.807276 31.490894 -0.960226
-5.2680283 29.701639 -0.58923048
-2.0280042 20.10877 -1.6013553
-3.8725355 24.894806 -1.8036535
-6.6081476 27.718321 -0.30804753
-7.7422295 26.122681 -0.043264017
-5.3758888 24.843674 -1.6331437
-6.9543996 25.435076 -1.4496101
-8.9151497 24.794159 0.16156918
-9.8341541 23.273094 0.42504954
-8.4736633 25.213427 -1.241914
-9.2432423 23.203583 -0.90904474
-3.8382075 31.344933 2.542604
-5.2458911 29.412151 2.5931597
-3.2355034 32.195198 0.82315832
-4.755724 30.15345 1.0521833
-6.6135511 27.632969 2.7276289
-7.7093334 26.129894 2.8636987
-6.0981374 28.343042 1.2449143
-7.303401 26.714664 1.4062197
-0.52724397 4.5650582 -1.7157401
-0.76853913 4.6540642 -1.7227749
-3.0503297 9.0248194 -1.7166265
-3.7191639 9.3235006 -1.7350714
-1.1106415 4.6622629 -1.7092609
-1.3962237 4.7717314 -1.7271664
-0.88659102 4.082623 -1.7242535
-1.1078734 4.1382174 -1.7227368
-1.7744 4.8027635 -1.7295578
-2.079355 4.858747 -1.7258441
-1.2807268 3.690995 -1.5149453
-1.6989597 4.1999359 -1.7240036
-0.74241245 6.36584 -1.69785
-1.1080296 6.5440707 -1.7078825
-0.50286776 5.360734 -1.7079887
-0.79333192 5.4559445 -1.7047795
-1.5662832 6.6088929 -1.6991577
-2.008847 6.8607998 -1.7263944
-1.1911267 5.5504494 -1.7174464
-1.5179282 5.6444097 -1.7255745
-2.5732543 7.0703411 -1.7456695
-3.0387952 7.191566 -1.7299058
-1.2756014 3.7006574 -1.0571357
-2.3467491 5.8574505 -1.7366468
-1.2289134 10.266288 -1.6818779
-1.8456141 10.649215 -1.6849793
-0.77479839 8.0197983 -1.7068905
-1.227432 8.1581507 -1.7027229
-2.6544206 11.203336 -1.7059808
-3.4045441 11.659788 -1.7018096
-1.7992359 8.3984308 -1.700458
-2.3401885 8.654748 -1.7065487
-1.5269489 12.966896 -1.6454253
-2.3192015 13.589405 -1.6561604
-8.3890772 25.166828 1.6476994
-9.3713589 23.847429 1.8000832
-3.3386559 14.342032 -1.6529816
-4.4225688 15.256999 -1.6582804
-2.1888082 10.251218 -1.6833041
-2.8627899 10.780719 -1.6980906
-5.7209229 16.165648 -1.6616533
-7.2397552 17.348106 -1.6641378
-3.6905546 11.117258 -1.7018924
-4.5294499 11.563911 -1.6999397
-3.681951 31.709021 -0.96766907
-5.1396127 29.793112 -0.59102821
-1.9268262 20.050678 -1.5952722
-3.7593634 24.940376 -1.8058877
-6.5095973 27.887444 -0.31061828
-7.6532655 26.27597 -0.044385687
-5.2764106 24.952669 -1.6393713
-6.8567853 25.550438 -1.4550172
-8.8261776 24.915104 0.16142531
-9.7590933 23.402206 0.42582998
-8.3916492 25.364975 -1.2483491
-9.4268246 23.990419 -0.94485164
-3.7140584 31.564739 2.5576842
-5.1380515 29.613304 2.6075234
-3.1064227 32.448971 0.82774067
-4.6412196 30.355343 1.0572344
-6.5131388 27.791866 2.739321
-7.616138 26.269142 2.8742061
-5.9968467 28.526014 1.2505828
-7.2106814 26.872263 1.4117726
-0.50495213 4.5601325 -1.7126992
-0.74750948 4.6631269 -1.7250108
-3.006537 9.0353661 -1.7158577
-3.6635935 9.3116856 -1.7291703
-1.0911363 4.6783385 -1.713642
-1.3747725 4.7818446 -1.7285918
-0.86807507 4.0903211 -1.7259114
-1.0902603 4.150454 -1.7259798
-1.7504816 4.8075404 -1.7281679
-2.0542111 4.8632989 -1.7238219
-1.2621547 3.6935077 -1.5133569
-1.6742936 4.19593 -1.7185948
-0.71281642 6.3730879 -1.6989628
-1.076538 6.5454221 -1.7068002
-0.47696543 5.355515 -1.7053605
-0.77088237 5.4821157 -1.7124836
-1.5342634 6.6124382 -1.6981034
-1.9748683 6.8646202 -1.7248666
-1.1645757 5.554141 -1.7168176
-1.4903241 5.6478243 -1.7243453
-2.5476854 7.1043196 -1.7515463
-3.0063791 7.2093902 -1.7308438
-1.2545367 3.6957526 -1.0535705
-2.3148518 5.8577743 -1.7331932
-1.1800795 10.268051 -1.681181
-1.7940792 10.650019 -1.6836423
-0.73579204 8.0097723 -1.7037425
-1.1875361 8.1541948 -1.7005299
-2.5976179 11.1984 -1.7031219
-3.3479111 11.670006 -1.7009078
-1.7588484 8.4029875 -1.6996152
-2.2993765 8.6656799 -1.7065487
-1.4445835 12.968361 -1.6442943
-2.2324708 13.595889 -1.6550823
-8.2653761 25.325388 1.6537899
-9.2508659 23.982168 1.8051859
-3.2450016 14.347239 -1.6509653
-4.3217216 15.267296 -1.6561706
-2.1251419 10.268624 -1.6840198
-2.7944977 10.796588 -1.6977513
-5.6218314 16.20879 -1.6625239
-7.1359119 17.406134 -1.6655303
-3.6194172 11.136471 -1.7012444
-4.4474311 11.56818 -1.6959671
-3.5042851 31.930214 -0.97503835
-4.9667983 29.911587 -0.59335476
-1.7950126 19.996906 -1.5893681
-3.5587032 24.661652 -1.781472
-6.3664041 28.070185 -0.31326145
-7.5280943 26.463924 -0.045728013
-5.1338658 25.055693 -1.6445849
-6.7174101 25.674101 -1.4602984
-8.6674938 24.964399 0.16143559
-9.6491003 23.553707 0.42667976
-8.2676897 25.527426 -1.254675
-9.311945 24.142347 -0.94932747
-3.5379949 31.789665 2.5727644
-4.9806066 29.816053 2.6214082
-2.9199457 32.665047 0.83152115
-4.479248 30.579716 1.0627296
-6.372313 27.981842 2.7529619
-7.4901056 26.454338 2.8882163
-5.8484702 28.715921 1.2561796
-7.0848327 27.08131 1.4191474
-0.47628981 4.5632153 -1.7126992
-0.71556413 4.651237 -1.7183031
-2.950309 9.0559473 -1.7162422
-3.6078653 9.3418493 -1.7306457
-1.057703 4.6669211 -1.7063402
-1.34007 4.7742195 -1.7221776
-0.8430686 4.0992646 -1.7275695
-1.0627681 4.1519175 -1.7235477
-1.3174605 3.6718791 -1.2778645
-2.0272651 4.8847885 -1.7271924
-1.2412068 3.708343 -1.5165339
-1.6485794 4.2080808 -1.7193674
-0.6727587 6.3774414 -1.6989628
-1.0387783 6.5729642 -1.7127527
-0.4431594 5.356523 -1.7047035
-0.73459619 5.4737191 -1.7079896
-1.4926856 6.6219487 -1.6981034
-1.9332868 6.8824739 -1.7263944
-1.1278076 5.5520377 -1.7136731
-1.4572191 5.6662822 -1.7274184
-1.2797374 3.6017292 -0.81077313
-2.9535916 7.2101712 -1.7261539
-1.2360139 3.718092 -1.0583241
-2.2737997 5.8615065 -1.7297397
-1.1124249 10.245888 -1.6759546
-1.724887 10.647461 -1.6813029
-0.68481094 8.0064688 -1.7019435
-1.1362779 8.1614971 -1.7005299
-2.5267746 11.212572 -1.7028043
-3.2750566 11.692713 -1.7012084
-1.7044848 8.4062042 -1.6979296
-2.2438905 8.6761684 -1.7057376
-1.3630779 12.977181 -1.6442943
-2.1448197 13.595948 -1.6531961
-8.1418419 25.489094 1.6602067
-9.1439409 24.155516 1.8129026
-3.1556413 14.371222 -1.6514693
-4.2219906 15.280751 -1.6545296
-2.0582936 10.270191 -1.6818724
-2.7236919 10.80247 -1.6957153
-5.5147901 16.228725 -1.6607825
-7.0234289 17.443243 -1.6647345
-3.5499725 11.160873 -1.7015684
-4.3830819 11.618069 -1.6996343
-3.3246126 32.156391 -0.98262888
-4.8072844 30.119867 -0.59811354
-1.664287 19.946249 -1.583822
-3.3307018 24.158266 -1.739024
-6.2169023 28.232687 -0.31554252
-7.3933578 26.624363 -0.046812877
-4.9929495 25.171606 -1.6508125
-6.5713181 25.775743 -1.4641964
-8.5496531 25.133902 0.16122663
-9.5353556 23.699179 0.42747754
-8.1444397 25.696932 -1.2614373
-9.1919928 24.284433 -0.95335579
-3.3611248 32.031471 2.5891752
-4.8221011 30.025858 2.6359315
-2.7346623 32.925877 0.83617991
-4.3121443 30.785423 1.0677252
-6.2276549 28.163351 2.7658939
-7.3572702 26.621712 2.900475
-5.699111 28.910965 1.2619916
-6.9437742 27.239494 1.4242665
-0.4479509 4.5698018 -1.7142195
-0.68492329 4.6464682 -1.7145766
-2.8939452 9.0761757 -1.7166265
-3.5526085 9.3735132 -1.7324898
-1.0322634 4.6916804 -1.713642
-1.3120607 4.7897434 -1.7250283
-0.81798595 4.1080551 -1.7292275
-1.0384737 4.1655984 -1.7267904
-1.2949756 3.6818581 -1.2785594
-1.9922186 4.8869882 -1.7231479
-1.3332527 4.0761604 -1.6801417
-1.6207644 4.2149196 -1.717822
-0.63213217 6.3758044 -1.6972936
-0.9974615 6.5793614 -1.7127527
-0.26916531 3.397789 -1.0206772
-0.70118761 5.4857368 -1.7105576
-1.4498364 6.6255369 -1.696522
-1.8858629 6.8795776 -1.722321
-1.0929033 5.5590134 -1.7136731
-1.4215904 5.6753263 -1.7274184
-1.2920979 3.7124884 -0.83819807
-2.9096971 7.2321882 -1.7270918
-1.8662859 5.7803597 -1.7291559
-2.2403724 5.8846121 -1.7326176
-1.0492024 10.264433 -1.6780452
-1.6573418 10.654193 -1.6806346
-0.63464236 8.0125551 -1.7023933
-1.0860307 8.1762066 -1.7022843
-2.4533556 11.214717 -1.7005811
-3.2004788 11.709247 -1.7006071
-1.651637 8.4167471 -1.6979296
